# .PCD v0.7 - Point Cloud Data file format
VERSION 0.7
FIELDS x y z
SIZE 4 4 4
TYPE F F F
COUNT 1 1 1
WIDTH 1401
HEIGHT 1
VIEWPOINT 0 0 0 1 0 0 0
POINTS 1401
DATA ascii
0.31577241 -0.23814246 0.86310905
0.35063496 -0.2405445 0.87181503
0.42320582 -0.25156102 0.91174203
0.32864359 -0.17812707 0.64559287
0.40132716 -0.19318821 0.70017928
0.39141858 -0.18702358 0.67783725
0.37853426 -0.16840121 0.61034304
0.39376915 -0.17047882 0.61787325
0.41409075 -0.17690369 0.64115912
0.44355255 -0.18701446 0.67780375
0.43463358 -0.17634244 0.63912499
0.43688184 -0.17505398 0.63445473
0.43803701 -0.16622941 0.60247183
0.43943149 -0.15837814 0.57401574
0.47187626 -0.16865909 0.61127764
0.4904826 -0.17434388 0.63188154
-0.093750179 -0.10028588 0.36604905
-0.088038526 -0.094968431 0.34664023
-0.079968892 -0.090052731 0.32869816
-0.10623586 -0.14513277 0.52974296
-0.042399012 -0.08256048 0.30135006
0.15824814 -0.2249521 0.82108879
0.20995228 -0.22394471 0.8174119
0.2256576 -0.23108231 0.84346437
0.26590297 -0.25029904 0.91360664
0.28768244 -0.24720056 0.90229696
0.36348921 -0.24892852 0.9086042
0.38104728 -0.2464682 0.89962363
0.40370223 -0.24504662 0.89443493
0.4245609 -0.25174713 0.9188922
0.33876014 -0.18543065 0.67683268
0.36292353 -0.18897332 0.68976414
0.34482804 -0.17389975 0.63474512
0.39103109 -0.18830995 0.68734276
0.38825297 -0.18488799 0.67485249
0.37336496 -0.16665399 0.60829681
0.37513426 -0.16686264 0.60905862
0.43184346 -0.17563178 0.64106613
0.43483937 -0.17573497 0.64144325
0.43637595 -0.16738442 0.61096293
0.42664754 -0.15617521 0.57004941
0.48326638 -0.17441028 0.63660806
-0.096474446 -0.11712995 0.43058708
-0.097420365 -0.11941756 0.4389964
-0.098207943 -0.12776583 0.4696863
-0.10704989 -0.14520667 0.53380126
-0.043552544 -0.082944661 0.30491659
-0.06432303 -0.13240777 0.48675063
0.15646109 -0.22330989 0.82092065
0.20461413 -0.2222499 0.81702393
0.2957654 -0.2523427 0.92765003
0.27398145 -0.22617598 0.83145696
0.32320508 -0.24315354 0.89386892
0.36938515 -0.24983612 0.91843492
0.37319922 -0.24212217 0.89007741
0.36659059 -0.18724631 0.68834567
0.3679519 -0.18719029 0.68813938
0.37914363 -0.18335587 0.67404372
0.39351571 -0.18401353 0.67646086
0.38606876 -0.17475274 0.64241695
0.37372336 -0.16563027 0.60888153
0.39416763 -0.16492735 0.60629821
0.39829919 -0.1634323 0.60080171
0.44384524 -0.17866503 0.65679938
0.46040368 -0.17747192 0.6524139
0.41984823 -0.15754461 0.57915711
0.42546478 -0.15552531 0.57173425
0.47319847 -0.17004359 0.62510592
-0.10567084 -0.13375837 0.4952552
-0.10107461 -0.13190433 0.48839054
-0.097621404 -0.13887124 0.51418644
-0.064493522 -0.098391533 0.36430505
-0.047202688 -0.084213048 0.3118079
-0.041069239 -0.080051921 0.29640087
0.15336612 -0.21979299 0.81380892
0.23668835 -0.23893772 0.88469392
0.26742819 -0.24281235 0.89904088
0.31916845 -0.25179595 0.93230391
0.29945707 -0.23477967 0.86929834
0.3519575 -0.23888648 0.88450468
0.38549602 -0.25480685 0.94345164
0.38513219 -0.24557447 0.90926778
0.38916916 -0.23968218 0.88745099
0.41813689 -0.25381178 0.93976784
0.40208748 -0.24174702 0.89509624
0.43800762 -0.25368702 0.9393056
0.36962235 -0.18669619 0.69126409
0.38917869 -0.18406616 0.68152601
0.3894842 -0.18284184 0.67699301
0.38225389 -0.17617519 0.65230876
0.39844865 -0.17843266 0.66066712
0.37268791 -0.16229519 0.60091668
0.39778543 -0.16257897 0.60196722
0.39876139 -0.16089623 0.59573686
0.42989594 -0.17235801 0.63817531
0.44538525 -0.17744215 0.65699977
0.44385019 -0.16935521 0.62705684
0.44212046 -0.16818744 0.62273347
0.42558238 -0.15949534 0.59054983
0.43274945 -0.15750983 0.58319801
0.4753482 -0.16959523 0.62794548
-0.10336755 -0.11807296 0.44034883
-0.10036275 -0.12870301 0.47999305
-0.10691421 -0.14294958 0.53312486
-0.095000297 -0.13121547 0.48936355
-0.047799248 -0.083484881 0.31135327
-0.047167867 -0.083545245 0.3115786
-0.046698604 -0.083898634 0.31289688
-0.054724548 -0.11475103 0.42796007
0.16241239 -0.23644464 0.88181198
0.20636374 -0.21723835 0.81018257
0.26167318 -0.25218496 0.9405145
0.27455553 -0.23403582 0.87282813
0.26901254 -0.22324333 0.83257782
0.28469273 -0.23016559 0.85839474
0.36290595 -0.24323776 0.90714663
0.37136257 -0.23274086 0.86799812
0.42450374 -0.24521962 0.91453761
0.43045241 -0.24089156 0.89839637
0.33439055 -0.17251155 0.64337552
0.37058976 -0.17938387 0.66900516
0.3939679 -0.17577887 0.65556091
0.38556516 -0.16498837 0.61531818
0.43944892 -0.16596763 0.61897045
0.43227676 -0.16228184 0.60522401
0.41766632 -0.15540175 0.57956511
0.48800108 -0.16764922 0.62524158
-0.11479233 -0.1446614 0.54344964
-0.098474689 -0.13502806 0.50726032
-0.095973313 -0.13456118 0.5055061
-0.049297541 -0.083161719 0.31241366
-0.041720167 -0.080149852 0.30109909
-0.041774206 -0.082808375 0.31108651
-0.04871133 -0.10312536 0.38741118
0.13197526 -0.21865149 0.82140911
0.24511276 -0.24004403 0.90177464
0.25430983 -0.24519481 0.9211247
0.23922257 -0.22541316 0.84681112
0.26193467 -0.2310794 0.86809736
0.29243535 -0.23471105 0.88174003
0.28001177 -0.22330056 0.83887452
0.34032774 -0.24475779 0.91948217
0.42823353 -0.24223427 0.91000265
0.42611864 -0.23464364 0.88148677
0.37976384 -0.19370243 0.72768271
0.36598253 -0.1751931 0.65814888
0.38384381 -0.1688191 0.63420343
0.419772 -0.16640392 0.62513018
0.4285706 -0.16935268 0.63620794
0.44806418 -0.17267272 0.64868045
0.49318549 -0.17148893 0.64423287
-0.10661906 -0.11787438 0.44607726
-0.068032302 -0.080236576 0.30364299
-0.09737815 -0.1159531 0.43880653
0.11665034 -0.22473554 0.85047686
0.16902988 -0.22672404 0.85800248
0.24065402 -0.23395632 0.88537258
0.26073596 -0.236726 0.89585376
0.26199019 -0.23273747 0.88075912
0.2911115 -0.24289928 0.91921479
0.32031491 -0.23408957 0.88587588
0.35520473 -0.22272396 0.84286386
0.39767209 -0.24080312 0.91128278
0.39965162 -0.23849757 0.90255779
0.40097713 -0.23813909 0.90120077
0.4122549 -0.22838059 0.86427164
0.33623165 -0.17380477 0.65773726
0.35997048 -0.16975167 0.64239919
0.3798039 -0.16880272 0.63880765
0.3919583 -0.16815956 0.63637382
0.40936968 -0.16749237 0.63384897
0.46135125 -0.17983338 0.68055201
0.45982158 -0.17867377 0.6761632
0.40149024 -0.14898412 0.56380719
0.40836021 -0.15018117 0.56833756
-0.09557271 -0.11296603 0.43067086
-0.1044879 -0.13381404 0.51015174
-0.10082692 -0.13475028 0.51372159
-0.082773969 -0.1197518 0.456541
-0.063995846 -0.098383814 0.37507859
-0.04930592 -0.08196076 0.31246686
0.16296081 -0.22681791 0.86472034
0.1668281 -0.22705045 0.86560667
0.17984349 -0.23190516 0.8841151
0.19121079 -0.22967061 0.87559575
0.27251044 -0.24204071 0.92275602
0.30768669 -0.23284033 0.88768029
0.32221732 -0.22574079 0.86061412
0.37132266 -0.24217108 0.92325276
0.41429031 -0.24902 0.94936335
0.41084203 -0.23216508 0.88510519
0.3573707 -0.17053804 0.65015906
0.36224157 -0.16577193 0.63198835
0.39075515 -0.1711614 0.65253544
0.39357418 -0.1630829 0.62173712
0.4153167 -0.16867526 0.64305687
0.41493317 -0.16470405 0.62791723
0.42769414 -0.16653742 0.63490671
0.45863208 -0.1769004 0.67441428
0.45249042 -0.17236441 0.65712196
0.41945764 -0.15404381 0.58727634
0.47866148 -0.16130508 0.61495948
-0.077150024 -0.082562536 0.31711158
-0.10993511 -0.12419413 0.47701353
-0.093068376 -0.10919049 0.41938585
-0.07131239 -0.10362686 0.39801684
-0.038650483 -0.081416719 0.31271061
0.24006435 -0.22638795 0.86952633
0.28334013 -0.23137438 0.88867861
0.28884599 -0.23274982 0.89396125
0.29673937 -0.23598818 0.90639961
0.30580404 -0.22829267 0.87684208
0.3313641 -0.22912005 0.88001931
0.326419 -0.22442684 0.86199445
0.3752673 -0.24037446 0.9232468
0.35697997 -0.22054309 0.84707719
0.38058245 -0.22706325 0.8721202
0.41872787 -0.2392744 0.91902167
0.41252559 -0.23353904 0.89699233
0.40197775 -0.22139439 0.85034645
0.40958813 -0.22256693 0.85485089
0.43507788 -0.22159059 0.85110003
0.47088781 -0.23784028 0.9135133
0.35624772 -0.16874199 0.64811546
0.37228566 -0.17037612 0.65439212
0.37335247 -0.16648608 0.63945091
0.38545379 -0.16879283 0.64831054
0.41039658 -0.16710038 0.64181054
0.44808653 -0.16432123 0.63113654
0.40790096 -0.1482456 0.56939238
0.4466669 -0.15276335 0.58674383
0.46393737 -0.15647325 0.60099357
-0.076796882 -0.079476178 0.30755448
-0.11312092 -0.12121794 0.46908516
-0.11478478 -0.12636088 0.48898742
-0.10600065 -0.12110129 0.4686338
-0.086809933 -0.10307255 0.39886668
-0.094125658 -0.11399794 0.44114512
-0.10780741 -0.13891768 0.53757936
-0.093388997 -0.12711224 0.4918943
-0.070985198 -0.10238089 0.39619038
0.14325534 -0.23040548 0.89161575
0.15367441 -0.23174839 0.89681298
0.16562299 -0.22206835 0.85935265
0.21097474 -0.21585122 0.83529389
0.23614304 -0.22450316 0.86877537
0.28202152 -0.24325398 0.94133639
0.26210022 -0.21979861 0.85056984
0.30132788 -0.224648 0.86933583
0.3202351 -0.22886513 0.88565511
0.33072349 -0.22826512 0.88333261
0.37829757 -0.22401473 0.86688519
0.39788231 -0.219487 0.84936357
0.39735854 -0.21820247 0.84439272
0.42980444 -0.23077877 0.89306051
0.44046727 -0.23442182 0.90715814
0.36269587 -0.16474774 0.63753539
0.3673698 -0.16440026 0.63619083
0.37364566 -0.16476926 0.63761848
0.3953757 -0.17122908 0.66261679
0.40083554 -0.16701296 0.64630145
0.40752745 -0.16040376 0.62072563
0.41601658 -0.15858255 0.61367732
0.47305936 -0.15705387 0.60776198
-0.14348841 -0.13364966 0.52111387
-0.082103163 -0.096750632 0.37724078
-0.093613192 -0.11140841 0.43439245
-0.10138849 -0.13106054 0.51101834
-0.095083736 -0.12844485 0.50082004
-0.063939013 -0.0926295 0.36117214
-0.049078923 -0.083148003 0.3242026
-0.043317832 -0.080179788 0.31262949
0.16496599 -0.21476018 0.8373726
0.16637821 -0.21427391 0.83547688
0.21080507 -0.21405481 0.83462209
0.2701945 -0.24164231 0.94218886
0.27194411 -0.24140798 0.94127566
0.28318754 -0.24242181 0.94522816
0.25935608 -0.21586099 0.84166515
0.30976018 -0.24108973 0.94003457
0.28380433 -0.2166719 0.844827
0.28829888 -0.21871181 0.85277998
0.31941912 -0.22927485 0.89396685
0.35406616 -0.23979954 0.93500388
0.37460372 -0.2339059 0.9120236
0.39510468 -0.2163149 0.84343481
0.43810549 -0.23346591 0.91030782
0.35964739 -0.16715804 0.65176672
0.35644123 -0.16008717 0.62419629
0.36538008 -0.16227964 0.6327455
0.40188149 -0.17335805 0.67594117
0.4128978 -0.17373805 0.6774227
0.39965755 -0.1652692 0.64440173
0.40400279 -0.16313073 0.63606369
0.41441891 -0.1624178 0.63328391
0.41219053 -0.14669178 0.57196653
-0.14308107 -0.13434556 0.52782875
-0.13925977 -0.13392536 0.52617806
-0.080859624 -0.092741147 0.36436942
-0.10918728 -0.13711709 0.53871822
-0.088541299 -0.1242976 0.48835143
-0.039578501 -0.078779057 0.30951431
-0.04798945 -0.098824665 0.38827085
0.13747141 -0.23001459 0.90370232
0.14078993 -0.21725281 0.85356247
0.14712115 -0.21852703 0.85856885
0.15923101 -0.21505539 0.84492916
0.1723617 -0.21795748 0.85633111
0.22687338 -0.23872505 0.93792427
0.22880694 -0.22302368 0.87623566
0.23988943 -0.22288017 0.87567192
0.23816349 -0.21956386 0.86264229
0.38446173 -0.24330573 0.95592153
0.37725851 -0.2350006 0.9232918
0.38746276 -0.22710156 0.89225763
0.40872353 -0.22006647 0.86461723
0.42445612 -0.22648899 0.88985008
0.41451138 -0.21260867 0.83531618
0.36777681 -0.16964048 0.66649872
0.3639304 -0.16282099 0.63970578
0.36666515 -0.16343057 0.64210093
0.42609483 -0.18110727 0.71155071
0.42365474 -0.16058284 0.63091213
0.40815917 -0.15276434 0.60019463
0.40206644 -0.14414163 0.56631631
0.46986815 -0.16644438 0.65394139
0.47142294 -0.15543592 0.61069095
0.47353059 -0.15484461 0.60836709
-0.07911922 -0.078684285 0.31152177
-0.096935168 -0.12896076 0.51057255
-0.088595502 -0.12198561 0.4829568
-0.081846938 -0.1153824 0.45681432
0.13941811 -0.21629518 0.85634196
0.22426492 -0.23011105 0.91104037
0.21414281 -0.21235026 0.84072334
0.22324426 -0.21772163 0.8619892
0.23656221 -0.22513615 0.89134473
0.26032072 -0.23275159 0.9214946
0.26361346 -0.21458936 0.84958893
0.30244118 -0.23033033 0.91190863
0.29510739 -0.21772943 0.86202073
0.36535019 -0.22008795 0.87135804
0.38380703 -0.2107905 0.83454818
0.4405494 -0.2312087 0.91538644
0.4455055 -0.18994495 0.75201744
0.43866447 -0.17098877 0.67696738
0.40350232 -0.14355128 0.56833887
0.47282004 -0.15470558 0.61250031
0.47542492 -0.15470119 0.61248291
-0.13875569 -0.12829357 0.51187181
-0.13880086 -0.1293553 0.5161078
-0.075473025 -0.075755656 0.30225313
-0.1220261 -0.13270609 0.52947652
-0.12112075 -0.13421091 0.53548086
-0.099101633 -0.12655367 0.5049299
-0.063935399 -0.091624036 0.36556551
-0.049553774 -0.08321777 0.33202618
-0.041571353 -0.076375127 0.30472475
0.15259102 -0.22600824 0.90173823
0.15451062 -0.22599657 0.90169185
0.17230274 -0.22407213 0.89401412
0.16955647 -0.2111346 0.84239507
0.17824861 -0.21076758 0.84093064
0.1963129 -0.22312807 0.89024687
0.27701646 -0.23681413 0.94485205
0.32420209 -0.22606327 0.90195799
0.32371753 -0.22439089 0.89528543
0.37327576 -0.22087942 0.88127553
0.41422394 -0.23222004 0.92652196
0.40600944 -0.21722953 0.86671305
0.42946938 -0.22770347 0.9085027
0.44150269 -0.2289087 0.91331065
0.38477182 -0.17682275 0.70549577
0.38670868 -0.17429769 0.69542062
0.38785776 -0.17151931 0.6843363
0.41951874 -0.18276341 0.72919846
0.4218038 -0.17781368 0.70944959
0.45408332 -0.17563637 0.70076239
0.42020842 -0.15989672 0.63796377
0.46323109 -0.16966113 0.67692238
0.41152236 -0.14704834 0.58669978
-0.075565495 -0.075259946 0.302623
-0.1194968 -0.1210865 0.48689353
-0.11953442 -0.12549615 0.50462508
-0.06397564 -0.092095807 0.37032121
-0.064095378 -0.093424022 0.37566167
-0.049286373 -0.083320305 0.33503425
-0.046107627 -0.080279 0.32280481
-0.042037006 -0.081754953 0.32873952
0.12753884 -0.21453393 0.86265016
0.12537631 -0.2078909 0.83593774
0.13055712 -0.20480697 0.82353747
0.14708468 -0.21892743 0.88031566
0.18183947 -0.2133459 0.85787243
0.21866561 -0.20825429 0.83739924
0.2654483 -0.23019893 0.92563963
0.29345831 -0.21587496 0.86804152
0.32915542 -0.22639032 0.91032422
0.32797691 -0.22164911 0.89126062
0.34753999 -0.22953744 0.92297941
0.32156569 -0.21118355 0.84917766
0.4159126 -0.2370235 0.95308131
0.39370987 -0.17675595 0.71074259
0.42419758 -0.18134704 0.729204
0.4213728 -0.17499584 0.70366538
0.4297151 -0.17231017 0.69286621
0.4461216 -0.16263515 0.65396279
0.41545928 -0.14912109 0.59962171
0.41291717 -0.14082356 0.56625718
-0.11197478 -0.10878791 0.44088724
-0.12011816 -0.12400425 0.50255549
-0.11939119 -0.12782592 0.5180437
0.16018727 -0.21970327 0.89039701
0.18446337 -0.21473219 0.870251
0.21248667 -0.22677365 0.91905189
0.21962139 -0.20255554 0.82090223
0.23927711 -0.21893482 0.88728249
0.2956008 -0.23031169 0.93338996
0.3007144 -0.21948321 0.88950515
0.33486262 -0.23124886 0.93718845
0.38025594 -0.22151873 0.89775479
0.40577555 -0.23170823 0.93905038
0.39026043 -0.20841642 0.84465486
0.43863687 -0.22690409 0.9195801
0.45380443 -0.21722953 0.88037217
0.38492212 -0.17692073 0.71701103
0.39124414 -0.17700754 0.71736318
0.39635479 -0.17792517 0.72108215
0.39703348 -0.1775395 0.71951848
0.45117494 -0.17888443 0.72496998
0.42210832 -0.15812767 0.64084798
0.41837883 -0.14808139 0.60013288
0.40346158 -0.14107145 0.57172346
0.41470093 -0.14032622 0.56870383
-0.082680017 -0.078374796 0.32015413
-0.12025203 -0.13265443 0.54188174
-0.042492472 -0.075074717 0.30667344
-0.041941248 -0.076459222 0.31232959
0.11375985 -0.19992518 0.81667769
0.15076701 -0.21810958 0.89095974
0.18350497 -0.21193311 0.86572856
0.19461587 -0.2139772 0.87407869
0.22100076 -0.22768742 0.93008393
0.26169798 -0.22339793 0.912561
0.32435387 -0.23193863 0.94744951
0.34376666 -0.23552726 0.96210921
0.43689942 -0.22223285 0.90780199
0.40330982 -0.18464664 0.75426573
0.39649031 -0.18080169 0.73856008
0.41120011 -0.17694245 0.72279465
0.43481869 -0.18365578 0.75021791
0.42261633 -0.17401001 0.71081585
0.42481384 -0.17428833 0.71195281
0.44153982 -0.17733899 0.72441483
0.45911777 -0.1793672 0.73269963
0.47451347 -0.18475184 0.75469542
0.41666669 -0.15536337 0.63464588
0.40783954 -0.14105126 0.57618248
-0.081716187 -0.076215029 0.31382391
-0.087613449 -0.0830791 0.34208784
-0.072923034 -0.085574195 0.35236207
-0.048543468 -0.081321128 0.33484867
0.18599895 -0.21310773 0.87749642
0.21378031 -0.22250198 0.91617876
0.2225605 -0.20531154 0.84539461
0.24300937 -0.2154305 0.88706076
0.24691986 -0.21553414 0.88748747
0.27466574 -0.22264919 0.91678452
0.37930787 -0.2290419 0.94310701
0.38432902 -0.229633 0.9455412
0.38138893 -0.21329564 0.87827039
0.42867801 -0.21728402 0.89469284
0.43383056 -0.21891917 0.90142578
0.45196792 -0.22507291 0.92676473
0.44032535 -0.21831827 0.89895117
0.45100394 -0.21073905 0.86774355
0.41143844 -0.18837795 0.77566856
0.4248904 -0.17935985 0.73853576
0.43145975 -0.18145877 0.74717832
0.45924112 -0.18107861 0.74561298
0.43044388 -0.15372086 0.63296366
0.4283354 -0.14967495 0.61630434
0.41179568 -0.14171623 0.58353341
-0.093628637 -0.12441082 0.51641035
-0.043202691 -0.073975593 0.3070614
0.10239946 -0.19841264 0.82358146
0.11680408 -0.20841008 0.8650791
0.14639416 -0.20581949 0.85432595
0.17058632 -0.22057359 0.91556811
0.19919682 -0.21348576 0.88614786
0.21470045 -0.21965855 0.91177028
0.22685055 -0.21637748 0.89815032
0.22374803 -0.20310573 0.84306163
0.23335242 -0.20846654 0.86531329
0.28477126 -0.20553201 0.85313213
0.33935702 -0.22610757 0.93853921
0.35179359 -0.22255392 0.92378819
0.36228198 -0.2241568 0.93044132
0.38026151 -0.21412429 0.88879818
0.3831487 -0.21049254 0.87372297
0.39684328 -0.21487397 0.89191008
0.47837681 -0.22450957 0.93190545
0.45046061 -0.20794481 0.86314785
0.38840589 -0.17156948 0.7121591
0.44919422 -0.1788014 0.74217784
0.46211338 -0.18265381 0.758169
0.39705977 -0.14382783 0.59700751
0.39844373 -0.14386676 0.59716946
0.40943375 -0.1464278 0.60779947
0.42000574 -0.14973359 0.62152159
0.43015659 -0.15286881 0.63453555
0.43338117 -0.15353073 0.63728279
0.41371593 -0.13668354 0.56735307
-0.078873008 -0.077472731 0.32419372
-0.042439256 -0.076745428 0.32115048
-0.043486517 -0.084078893 0.35183841
0.13368675 -0.21001281 0.87882423
0.14808677 -0.20149243 0.84316939
0.18777122 -0.21169314 0.88585615
0.19907494 -0.21163294 0.88560385
0.23591949 -0.2074149 0.86795312
0.26023895 -0.21525495 0.90076089
0.26309264 -0.21601728 0.90395063
0.26368704 -0.21337153 0.89287919
0.27502546 -0.2147744 0.89875013
0.29267713 -0.20953339 0.87681806
0.32326224 -0.21750276 0.91016722
0.39075172 -0.21190415 0.88673884
0.44508746 -0.21714592 0.90867418
0.4481115 -0.20688547 0.86573738
0.38580695 -0.16904594 0.70739383
0.40282497 -0.16984662 0.7107439
0.46998048 -0.18171529 0.76041001
0.44318298 -0.15099052 0.63183784
-0.078657679 -0.071017556 0.2996192
-0.10121308 -0.12495313 0.52717042
-0.099786229 -0.12457843 0.52559
-0.064524233 -0.087446854 0.36893329
-0.049550325 -0.075451836 0.31832734
-0.041501876 -0.076927952 0.32455507
0.11970836 -0.20061779 0.84639621
0.14559147 -0.20921554 0.88266969
0.14258093 -0.20226856 0.85336113
0.15566202 -0.20267704 0.85508347
0.19327344 -0.20977747 0.88504046
0.21318638 -0.21458916 0.90534085
0.22155198 -0.21519636 0.90790254
0.22672243 -0.21458025 0.90530342
0.27759925 -0.21352896 0.900868
0.28227365 -0.21126316 0.89130896
0.29403237 -0.2101364 0.88655519
0.31717086 -0.22097641 0.93228847
0.32627478 -0.21138319 0.89181519
0.36933094 -0.21651031 0.91344601
0.37933907 -0.21121216 0.89109313
0.4101415 -0.2153859 0.90870208
0.42787433 -0.20979595 0.88511896
0.45786452 -0.21499489 0.90705299
0.45049804 -0.20544668 0.86676925
0.40952277 -0.1844843 0.77832979
0.42561096 -0.190956 0.80563349
0.41833121 -0.184701 0.7792443
0.45976409 -0.1751079 0.73877066
0.4432638 -0.15353197 0.64774388
0.43679693 -0.14942528 0.63041776
0.41523901 -0.13904801 0.58663642
-0.077978171 -0.070399486 0.29946873
-0.079309426 -0.072194047 0.30710179
-0.081505127 -0.076733112 0.32641044
-0.06482432 -0.088210829 0.3752346
-0.048767835 -0.075731017 0.32214782
-0.043116625 -0.077962533 0.33164015
-0.040986128 -0.076629758 0.32597059
0.11316281 -0.19702427 0.83811045
0.11562131 -0.19816771 0.84297454
0.11789733 -0.19896819 0.84637946
0.14558934 -0.20484228 0.87136692
0.15165117 -0.20054433 0.8530845
0.18768005 -0.21464024 0.91304618
0.19243594 -0.20715554 0.88120782
0.26383209 -0.2085056 0.88695037
0.27962694 -0.21185476 0.90119714
0.31357443 -0.21267059 0.90466779
0.32748795 -0.21042857 0.8951304
0.32761261 -0.20928608 0.89027023
0.32646844 -0.20735079 0.882038
0.3720907 -0.20756117 0.88293278
0.38220936 -0.2089662 0.88890958
0.38946119 -0.21187803 0.90129572
0.39740008 -0.21303567 0.90622026
0.4053002 -0.21413969 0.91091686
0.41027996 -0.21573439 0.91770041
0.3926805 -0.19616418 0.83445162
0.45066527 -0.2116712 0.90041596
0.41345903 -0.18398224 0.78263181
0.41368982 -0.18334322 0.77991349
0.43544054 -0.17279151 0.73502803
0.4574416 -0.17398918 0.74012309
0.43957636 -0.15388979 0.65462339
0.42966351 -0.14852832 0.63181651
0.45421833 -0.15652461 0.66583151
0.4466615 -0.15343975 0.65270889
0.45025185 -0.15276463 0.64983714
0.4512229 -0.15262325 0.64923561
0.43218887 -0.1452916 0.61804771
-0.06437362 -0.089076839 0.38207927
-0.049105532 -0.074571818 0.31986207
-0.043417368 -0.071943194 0.30858728
-0.043902893 -0.077454664 0.33222723
-0.042624857 -0.076435901 0.32785815
0.19227907 -0.2136386 0.91636407
0.18691251 -0.19954512 0.85591257
0.19495784 -0.20611706 0.88410193
0.23376502 -0.2020933 0.86684316
0.24667266 -0.19759172 0.84753382
0.26108679 -0.20611066 0.88407433
0.27101806 -0.21089788 0.90460896
0.31678125 -0.21439038 0.91958863
0.33368626 -0.22306305 0.95678943
0.34387833 -0.21535859 0.92374152
0.35811788 -0.21209858 0.90975887
0.36538747 -0.20957652 0.89894068
0.37395117 -0.21007004 0.9010579
0.3977235 -0.21144557 0.9069581
0.40032473 -0.20776545 0.89117259
0.40046403 -0.17744374 0.76111299
0.41704184 -0.17897317 0.76767349
0.43555945 -0.17716165 0.75990283
0.41868106 -0.16717955 0.71708691
0.47692961 -0.17216152 0.73845559
0.4309642 -0.15106943 0.64798534
0.45761898 -0.15541835 0.66663933
-0.092939772 -0.11068352 0.47874966
-0.10014036 -0.12058624 0.5215826
-0.0466398 -0.074378662 0.32171649
-0.039448578 -0.075087734 0.32478371
0.10395656 -0.19330092 0.83610266
0.1082302 -0.19455883 0.84154391
0.13753054 -0.20330633 0.87937939
0.15191528 -0.20496346 0.88654733
0.16271576 -0.2042495 0.88345909
0.18361337 -0.19630975 0.84911656
0.20227389 -0.20607597 0.89135951
0.20450902 -0.20640923 0.89280069
0.25812784 -0.21124843 0.91373247
0.26681569 -0.20737565 0.89698082
0.32479274 -0.21399584 0.92561597
0.33296782 -0.21805395 0.94316912
0.33799177 -0.218696 0.94594628
0.34071979 -0.20685057 0.89470989
0.36086777 -0.20966792 0.90689635
0.35889316 -0.2009646 0.86925071
0.3551361 -0.19581957 0.84699672
0.41544566 -0.19694741 0.85187495
0.47166175 -0.20980503 0.9074893
0.40892029 -0.17402425 0.7527231
0.40004486 -0.16196328 0.70055479
0.41115707 -0.16400665 0.70939344
0.44683099 -0.17312908 0.74885172
0.46526879 -0.17648004 0.76334614
0.45860252 -0.15542126 0.67225802
0.43826926 -0.14534272 0.6286642
-0.07826151 -0.069472618 0.30304444
-0.077750519 -0.069594905 0.30357829
-0.071005404 -0.068718418 0.29975519
-0.10226066 -0.11689828 0.50991952
-0.094059467 -0.11754563 0.51274329
-0.089448951 -0.11583266 0.5052709
0.11618863 -0.1941992 0.84711236
0.15167531 -0.1955992 0.85321856
0.23745951 -0.20186305 0.88054264
0.27643406 -0.19876266 0.86701792
0.32051942 -0.19967441 0.8709954
0.35971144 -0.20181826 0.88034719
0.38902855 -0.20044249 0.87434578
0.4289175 -0.18764354 0.81851602
0.3829447 -0.16685073 0.7278161
0.38828745 -0.16581081 0.72327983
0.43711901 -0.18160237 0.79216331
0.41194022 -0.16662398 0.72682667
0.42033112 -0.16443689 0.71728635
0.4424212 -0.16876975 0.73618698
0.45387802 -0.15495388 0.67592108
0.45938107 -0.15437585 0.67339921
0.46415073 -0.15549144 0.67826593
0.40774393 -0.13205804 0.57604784
-0.070230961 -0.068006143 0.29918522
-0.092772886 -0.11630956 0.51169115
-0.089251354 -0.11459622 0.50415367
-0.043659307 -0.072744489 0.32003129
0.10562288 -0.19647346 0.86436361
0.12019503 -0.20234476 0.8901937
0.13173907 -0.20857237 0.91759104
0.13789354 -0.20898296 0.91939813
0.16536972 -0.1908039 0.83942086
0.18967094 -0.20339596 0.89481831
0.17976974 -0.18711779 0.82320434
0.21605386 -0.1977841 0.87012982
0.22193076 -0.19318652 0.84990329
0.24906693 -0.20348367 0.89520395
0.265854 -0.20027468 0.88108629
0.27321672 -0.19878069 0.87451428
0.27293438 -0.19200748 0.84471595
0.29991615 -0.20165147 0.88714355
0.30854869 -0.19511975 0.85840786
0.36177 -0.20555258 0.90430677
0.38682038 -0.20148602 0.8864156
0.44807863 -0.20262842 0.891442
0.46965 -0.20624432 0.90734935
0.43605945 -0.18915009 0.83214521
0.41864723 -0.16790065 0.73866057
0.45131832 -0.166557 0.73274922
0.46336168 -0.16254096 0.71508145
0.44794658 -0.15260342 0.67136186
0.40830994 -0.12840572 0.56490672
-0.069342531 -0.067183331 0.29811564
-0.041547537 -0.074466661 0.33043426
0.10665322 -0.19669306 0.87279558
0.13284315 -0.20546241 0.91170788
0.13941549 -0.18804391 0.83441609
0.15197901 -0.19266641 0.85492772
0.16200964 -0.20055944 0.88995188
0.17996997 -0.20150118 0.89413041
0.25056884 -0.19401701 0.86092061
0.33114561 -0.21011724 0.93236339
0.32134938 -0.19910841 0.88351327
0.35382438 -0.21419542 0.95045954
0.35889053 -0.21358337 0.94774348
0.35981196 -0.1994939 0.88522345
0.38356805 -0.21045186 0.9338482
0.38028812 -0.19735569 0.8757357
0.42552605 -0.20564961 0.91253901
0.41731122 -0.19540989 0.86710137
0.44144487 -0.20047835 0.88959217
0.46835095 -0.20391463 0.90484023
0.4740015 -0.20552605 0.9119904
0.39677247 -0.16589975 0.73615444
0.43034548 -0.17307402 0.76798922
0.41619956 -0.16486946 0.7315827
0.43509856 -0.16316104 0.72400218
-0.078920648 -0.068274945 0.30559593
-0.069478862 -0.06673456 0.29870135
-0.10009222 -0.10918092 0.48869011
-0.0660135 -0.088661984 0.39684737
-0.041647896 -0.072765969 0.32569727
0.13444756 -0.20316958 0.90937978
0.16001712 -0.19410492 0.8688066
0.187672 -0.19389924 0.86788613
0.20658383 -0.19600242 0.87730002
0.22051722 -0.20189242 0.90366352
0.22155511 -0.20108147 0.90003359
0.24490844 -0.18938875 0.84769708
0.27800789 -0.20297199 0.90849549
0.32117382 -0.20449308 0.9153043
0.32565176 -0.20608881 0.92244661
0.35922265 -0.21435638 0.95945197
0.34056443 -0.19649231 0.8794924
0.44715327 -0.21038003 0.94165343
0.37753907 -0.15526444 0.69495773
0.42192993 -0.17149611 0.76761043
0.41862571 -0.16501966 0.73862249
0.42185274 -0.16566706 0.74151987
0.40701336 -0.157473 0.70484334
0.41184592 -0.1581718 0.70797133
0.46231785 -0.16711755 0.74801236
0.46924233 -0.16395101 0.7338385
0.47190943 -0.15852436 0.70954883
0.46901405 -0.15217246 0.68111831
0.4823696 -0.14156573 0.63364267
-0.098924898 -0.10586416 0.47800365
-0.098601326 -0.11374047 0.51356751
-0.097305551 -0.11350909 0.51252258
-0.089900963 -0.11112659 0.50176543
-0.088425338 -0.11062247 0.49948895
-0.050611876 -0.071035296 0.32074252
-0.050024021 -0.071174212 0.32137024
-0.043967608 -0.072514378 0.32742059
0.10946273 -0.18541889 0.83721495
0.11135522 -0.18265283 0.82472497
0.13519637 -0.19963722 0.90141398
0.18786319 -0.1905241 0.86026555
0.20587838 -0.1936332 0.87430441
0.27697018 -0.20186454 0.91147006
0.27607778 -0.19437815 0.8776679
0.2903502 -0.20034316 0.9046011
0.35919702 -0.21247558 0.95938295
0.3504464 -0.20154662 0.91003549
0.36278886 -0.20192075 0.91172433
0.38466802 -0.20113391 0.90817189
0.43190324 -0.2023474 0.91365099
0.41976824 -0.19577707 0.88398433
0.42017671 -0.19165434 0.86536914
0.42909226 -0.19233438 0.86843967
0.47153938 -0.20093052 0.90725338
0.42671883 -0.17888916 0.80773127
0.41224703 -0.17143516 0.77407438
0.41082001 -0.17015877 0.76831114
0.42585242 -0.16831173 0.75997114
0.40821862 -0.15656482 0.70693034
0.40989497 -0.15662801 0.70721579
0.45022541 -0.14708784 0.66413975
0.4238635 -0.1310389 0.59167463
0.43765071 -0.13489875 0.60910296
0.42547283 -0.1292232 0.58347559
0.48480511 -0.14469856 0.65335143
0.46600085 -0.13789453 0.62262934
-0.10768833 -0.087903142 0.40042081
-0.073367 -0.082964987 0.37792602
-0.086227171 -0.10823229 0.49302471
-0.049233649 -0.072417796 0.32988107
-0.044195753 -0.072250955 0.32912058
0.13179375 -0.19569282 0.89142948
0.12748989 -0.18660487 0.85003173
0.23446095 -0.18936075 0.86258608
0.23797081 -0.1863348 0.84880149
0.28479755 -0.19875704 0.90538883
0.29472288 -0.19383062 0.88294691
0.32411605 -0.20783825 0.94675535
0.34887451 -0.1945617 0.88627726
0.35071608 -0.19453235 0.88614392
0.37981245 -0.20405942 0.92954189
0.38803828 -0.20739399 0.94473213
0.38605037 -0.20526338 0.93502557
0.38349181 -0.20181358 0.91931206
0.37970206 -0.19195114 0.87438619
0.39278069 -0.19662732 0.89568657
0.40470284 -0.20063968 0.91396439
0.41922572 -0.19556795 0.89086086
0.41679087 -0.19181843 0.87378109
0.42943719 -0.19246426 0.87672317
0.40857357 -0.15532513 0.70754492
0.431467 -0.15874057 0.72310311
0.44359049 -0.16146581 0.73551685
0.46770644 -0.15897588 0.72417432
0.48807564 -0.16162066 0.73622245
0.44433224 -0.145726 0.66381812
0.44820774 -0.14652923 0.66747695
0.45354393 -0.14733569 0.67115128
0.46606228 -0.14498264 0.66043192
0.49703076 -0.14056692 0.64031714
-0.10776652 -0.08718808 0.40071219
-0.10457595 -0.10664218 0.49012238
-0.043497685 -0.071619496 0.32915998
-0.046952534 -0.082655296 0.37987995
0.1111486 -0.18496814 0.85010564
0.11557598 -0.18624693 0.8559829
0.12145467 -0.18684751 0.85874331
0.13961916 -0.19162494 0.88069934
0.15644959 -0.19148931 0.88007647
0.16198221 -0.19135903 0.87947798
0.16767941 -0.18126151 0.83307022
0.19840775 -0.18672021 0.85815787
0.23719424 -0.19290544 0.88658476
0.30005494 -0.19190322 0.88197851
0.3696785 -0.18614501 0.85551447
0.39557296 -0.19531927 0.89767855
0.40842721 -0.1997287 0.91794413
0.41032726 -0.19503656 0.89637905
0.41450614 -0.19341059 0.8889066
0.42175418 -0.19067471 0.87633258
0.43785307 -0.19034511 0.87481815
0.42667055 -0.16504462 0.75853753
0.42650992 -0.16435793 0.755382
0.42170376 -0.16128476 0.74125838
0.42178836 -0.16011415 0.73587751
0.41729808 -0.157821 0.72533858
0.41336229 -0.15460941 0.71057767
0.47574207 -0.15818113 0.72699356
0.48041335 -0.15921421 0.73174137
0.4405067 -0.14365056 0.6602115
0.46834454 -0.14662264 0.67387092
0.4629302 -0.14316644 0.65798658
0.45753586 -0.13855168 0.63677788
0.47141373 -0.14233093 0.65414637
0.48364171 -0.13823324 0.63531375
0.49073291 -0.13755661 0.63220447
-0.10816777 -0.086730599 0.40220359
-0.1095575 -0.091480069 0.42422864
-0.114781 -0.09664157 0.44816455
-0.10036587 -0.10246093 0.47515127
-0.050176445 -0.073550634 0.34108326
0.11173333 -0.1842804 0.85458148
0.1242765 -0.19238727 0.89217615
0.13712451 -0.18651897 0.86496216
0.1560232 -0.17852853 0.8279075
0.25593492 -0.18687838 0.8666296
0.2787582 -0.18241988 0.84595311
0.33262521 -0.20566447 0.95374751
0.32186612 -0.19309503 0.89545822
0.36046898 -0.20526867 0.95191187
0.34124804 -0.18795805 0.87163597
0.35836968 -0.19214381 0.89104682
0.37222934 -0.19241671 0.89231282
0.42661241 -0.20382002 0.94519466
0.40726957 -0.18747659 0.86940247
0.40998775 -0.18787058 0.87122995
0.41482314 -0.18922681 0.87751979
0.43608606 -0.18550631 0.86026657
0.45851153 -0.19023333 0.88218677
0.46733326 -0.19309931 0.89547861
0.48048022 -0.16422924 0.76159626
0.44827902 -0.15117411 0.7010541
0.49832949 -0.1403704 0.6509527
0.50584906 -0.14209166 0.65893531
-0.094076708 -0.098154031 0.45932013
-0.048627235 -0.072751142 0.34044501
0.12269641 -0.18262434 0.85460776
0.14768222 -0.19384199 0.90710098
0.15821119 -0.18145803 0.84914941
0.16712917 -0.1793422 0.83924806
0.18985572 -0.19140345 0.89568985
0.19832858 -0.18502025 0.86581922
0.20376068 -0.18660574 0.87323838
0.2737295 -0.19115227 0.8945148
0.32618198 -0.18201435 0.85175312
0.34062502 -0.18592331 0.87004507
0.41087356 -0.19091448 0.8934015
0.42654964 -0.19458117 0.91056013
0.45090374 -0.19169681 0.89706266
0.42829236 -0.17394733 0.81400239
0.44410869 -0.17400947 0.81429279
0.41801026 -0.16125581 0.75461131
0.41460896 -0.15174665 0.71011221
0.44063249 -0.14824675 0.69373375
0.48229074 -0.15697975 0.73460096
0.46693003 -0.15051016 0.70432532
0.41538388 -0.12317282 0.57639802
0.4964242 -0.13666494 0.63953596
0.4964416 -0.13592125 0.63605547
-0.045053139 -0.06992989 0.33024734
0.11243402 -0.18209171 0.85993904
0.11984847 -0.18502589 0.87379622
0.14990009 -0.1852358 0.87478727
0.16970003 -0.18044408 0.85215783
0.22605476 -0.1818227 0.85866904
0.23539767 -0.1863123 0.87987053
0.26862362 -0.18851313 0.89026463
0.31024832 -0.19681239 0.92945778
0.31913891 -0.19739664 0.93221724
0.3384096 -0.18403792 0.86913085
0.35531494 -0.19010115 0.89776367
0.37989572 -0.20108053 0.94961494
0.35841388 -0.18770453 0.88644546
0.37421545 -0.18802814 0.88797432
0.36430192 -0.18212353 0.86008918
0.3968477 -0.18886361 0.89191931
0.43842661 -0.19638735 0.92745095
0.44289884 -0.19749768 0.93269449
0.45206484 -0.19207515 0.9070859
0.44236469 -0.18247564 0.86175138
0.43235657 -0.17053664 0.80536938
0.42394662 -0.15661898 0.7396425
0.45858181 -0.14647429 0.69173354
0.44667494 -0.14085469 0.66519421
0.4646315 -0.13452755 0.6353144
-0.085142463 -0.068602785 0.32698271
-0.09595459 -0.079939082 0.3810156
-0.101569 -0.10404275 0.49590138
-0.097797483 -0.10123574 0.48252219
-0.094503433 -0.10562263 0.50343192
-0.093254305 -0.10542729 0.5025003
-0.088944204 -0.10292498 0.49057373
-0.084789157 -0.099287197 0.47323477
-0.052560709 -0.069884889 0.33309382
-0.045461468 -0.073364124 0.34967655
0.10101893 -0.17653117 0.84140533
0.10355923 -0.17780514 0.84747702
0.18701074 -0.18699004 0.89125508
0.19918433 -0.18075094 0.86151779
0.20114845 -0.17760758 0.84653586
0.21082084 -0.18285786 0.8715601
0.22356834 -0.19054754 0.90821165
0.24379121 -0.18817712 0.89691281
0.24374866 -0.17832844 0.84997129
0.36980614 -0.17779455 0.84742671
0.38664445 -0.18408667 0.87741697
0.4055489 -0.18674694 0.89009678
0.41862324 -0.19009228 0.90604156
0.41701096 -0.1573358 0.74991375
0.42508912 -0.15916018 0.75860918
0.41346231 -0.14966892 0.71337062
0.44361892 -0.13994269 0.66701245
0.47958291 -0.14172336 0.67549962
-0.092605844 -0.10372365 0.49900439
-0.084731176 -0.097141095 0.46733654
-0.079139754 -0.091813341 0.44170555
0.10529618 -0.17603296 0.84687883
0.11840717 -0.18228404 0.87695211
0.12132426 -0.18104306 0.87098128
0.12290895 -0.18063629 0.86902505
0.13561094 -0.18273512 0.8791222
0.15310824 -0.18120524 0.87176144
0.18842641 -0.18477757 0.88894832
0.21986908 -0.18406001 0.88549578
0.23950393 -0.18031862 0.86749619
0.28369853 -0.19005147 0.91432011
0.28636035 -0.18422081 0.88626873
0.36634833 -0.19344948 0.9306677
0.39301854 -0.18185917 0.87490749
0.43416169 -0.19264761 0.92680973
0.45127955 -0.19753928 0.95034361
0.42364702 -0.17977923 0.86490172
0.44594306 -0.18841878 0.90646565
0.44266 -0.18462531 0.88821542
0.43547273 -0.18085191 0.87006211
0.4371734 -0.17926167 0.86241168
0.42336416 -0.1659046 0.79815185
0.4185513 -0.16141698 0.77656245
0.416758 -0.15883571 0.76414406
0.42603949 -0.15112077 0.72702771
0.47951195 -0.13471155 0.64808488
0.50065035 -0.13369805 0.64320928
-0.070327051 -0.076276332 0.37042338
-0.048094075 -0.068312101 0.33174661
0.10780758 -0.17552796 0.85242289
0.11385643 -0.18229604 0.88529015
0.1459589 -0.1798846 0.87357938
0.16423425 -0.17547147 0.85214794
0.18262754 -0.1810672 0.87932289
0.24245092 -0.1767258 0.85824001
0.28821251 -0.18867007 0.91624516
0.34233275 -0.18510768 0.89894497
0.3671993 -0.18900633 0.91787815
0.38608715 -0.18961099 0.92081428
0.40173927 -0.18415557 0.89432132
0.41027275 -0.18455502 0.89626044
0.42129937 -0.18519153 0.89935231
0.43687412 -0.19030121 0.92416662
0.40539712 -0.17422678 0.84610355
0.42952457 -0.18135989 0.88074464
0.42431322 -0.16810811 0.81638926
0.41183016 -0.15859705 0.77020067
0.42913824 -0.15532826 0.75432616
0.42413205 -0.1194187 0.57993728
-0.083314188 -0.067478903 0.33082354
-0.075441651 -0.06269896 0.30738923
-0.073892109 -0.077638008 0.38063025
-0.088776343 -0.096462987 0.47292206
-0.073364533 -0.08063513 0.39532346
-0.074668191 -0.084002681 0.41183394
-0.074565701 -0.085913166 0.42119983
-0.044336349 -0.071923852 0.35261565
0.15058519 -0.17278211 0.84708607
0.15577321 -0.17453799 0.85569447
0.18167061 -0.17841762 0.87471533
0.19442041 -0.17312342 0.84875977
0.21662168 -0.17493716 0.85765135
0.23683798 -0.1749758 0.85784155
0.25090656 -0.17846164 0.8749302
0.26744133 -0.17826475 0.87396568
0.28048745 -0.18312345 0.89778602
0.388522 -0.19293931 0.94590914
0.38868558 -0.1890846 0.92701143
0.3989723 -0.18557531 0.90980649
0.40049425 -0.18185149 0.89155036
0.40222773 -0.17675172 0.86654782
0.41767174 -0.16877258 0.82742953
0.45391807 -0.17525625 0.85921597
0.4111968 -0.15623344 0.76595443
0.41939917 -0.15685196 0.76898623
0.42501456 -0.15470809 0.75847614
0.42560044 -0.1537485 0.75377101
-0.10120881 -0.098799743 0.48903963
-0.073660351 -0.076657109 0.3794378
-0.071895316 -0.078266971 0.38740626
-0.076471336 -0.090548731 0.44819838
-0.047339018 -0.070104614 0.3470042
0.12483396 -0.17566256 0.86949611
0.15730502 -0.17254841 0.85408187
0.17763761 -0.17459054 0.86419016
0.19637729 -0.18347038 0.90814364
0.20780782 -0.17054932 0.84418672
0.25080159 -0.17409138 0.86171919
0.2546311 -0.17546104 0.8684991
0.25994757 -0.17282514 0.855452
0.27829239 -0.17633952 0.8728475
0.36763555 -0.19287045 0.95467228
0.35343641 -0.18439771 0.91273415
0.42915088 -0.17778009 0.87997794
0.4267405 -0.16587697 0.82105923
0.42868802 -0.16327663 0.80818826
0.42837974 -0.15744942 0.77934486
0.4271293 -0.15577826 0.77107316
0.45191225 -0.12706576 0.62895131
0.42763272 -0.11813061 0.58472389
0.47620821 -0.12497489 0.61860222
0.47749725 -0.12462126 0.61685097
-0.075272307 -0.063580409 0.3177689
-0.075970866 -0.074215069 0.37092009
-0.073493473 -0.08727821 0.4362084
-0.047070302 -0.069035627 0.34503353
0.11503115 -0.17603439 0.87980384
0.11677419 -0.1730442 0.86485898
0.11232267 -0.1613393 0.80635881
0.12034269 -0.16525236 0.82591581
0.15419377 -0.18231805 0.91120952
0.16745701 -0.1738469 0.86887068
0.16982584 -0.17437202 0.87149602
0.17509566 -0.17222719 0.86077607
0.17790566 -0.17317146 0.86549532
0.20354569 -0.16689281 0.83411455
0.21933329 -0.17674141 0.88333851
0.2164433 -0.17146079 0.85694504
0.25138453 -0.17409529 0.87011302
0.30047575 -0.18363903 0.91781175
0.30622584 -0.18593949 0.92930865
0.33290344 -0.18982558 0.94873095
0.34506342 -0.17634983 0.88138062
0.40381965 -0.18885121 0.94386125
0.39987829 -0.18156566 0.90744889
0.40878543 -0.16067211 0.80302453
0.43692094 -0.15720929 0.78571779
0.4174628 -0.11454625 0.57249117
0.47672233 -0.12459769 0.62272787
0.47590041 -0.12403661 0.61992347
-0.082461886 -0.063795783 0.32197371
-0.07618653 -0.062047664 0.31315115
-0.09893968 -0.089198016 0.45017892
-0.098012812 -0.093838222 0.47359678
-0.072242707 -0.082856789 0.41817436
-0.071542338 -0.083081521 0.41930866
-0.048169959 -0.066821158 0.33724311
0.12223569 -0.16148326 0.81499875
0.13658364 -0.17304039 0.87332642
0.15460932 -0.17027922 0.85939139
0.16315463 -0.17153901 0.86574954
0.17971012 -0.17322797 0.87427354
0.20066045 -0.17856853 0.90122771
0.1908693 -0.16665567 0.84110278
0.21816383 -0.17260468 0.87112814
0.23753868 -0.1678756 0.84726053
0.24963672 -0.16994776 0.85771871
0.25422934 -0.16934314 0.85466725
0.2769393 -0.17563634 0.88642842
0.29759941 -0.18129739 0.91500014
0.33897611 -0.17939028 0.90537441
0.35740504 -0.17607595 0.88864744
0.44028085 -0.18126339 0.91482735
0.42648396 -0.17327474 0.87450969
0.44321993 -0.16758813 0.84580988
0.4309575 -0.15718162 0.79328841
0.4331325 -0.15735564 0.79416746
0.434322 -0.11801403 0.59561139
0.47988579 -0.12925798 0.65235871
0.50448495 -0.13509881 0.68183708
0.48366109 -0.12804264 0.64622521
0.48740831 -0.1247594 0.62965465
-0.081131458 -0.076127522 0.38801891
-0.070200577 -0.070174336 0.35767654
-0.06409242 -0.066232488 0.33758441
-0.052514885 -0.067112543 0.3420701
-0.047042545 -0.067653991 0.34483051
0.14719012 -0.17283766 0.88094831
0.21442549 -0.16656107 0.84895724
0.28726193 -0.17796052 0.90706027
0.30350652 -0.17954226 0.91512167
0.32132509 -0.1830067 0.93278027
0.37525186 -0.18208645 0.92808926
0.43623814 -0.1575463 0.80300909
0.45246249 -0.12173673 0.62048882
0.48028952 -0.12343488 0.62914383
0.48284903 -0.12271838 0.62549156
0.49363914 -0.12476987 0.63594806
-0.076069742 -0.061275031 0.31544277
-0.075409293 -0.061286077 0.3154999
-0.093536161 -0.082671553 0.42559159
-0.081893913 -0.07848797 0.40405503
-0.074117623 -0.082320593 0.42378482
-0.052712478 -0.065781742 0.33864319
-0.048738763 -0.066283651 0.34122652
0.12792417 -0.1680766 0.86525613
0.14611462 -0.17433456 0.89747292
0.16525261 -0.17033482 0.87688184
0.18551195 -0.1717394 0.88411182
0.19768736 -0.17414165 0.89647955
0.25738806 -0.16570142 0.85302931
0.29920462 -0.16977274 0.87398803
0.30648434 -0.17282449 0.88969827
0.33347178 -0.17915015 0.92226261
0.34242243 -0.1717741 0.88429147
0.35101044 -0.1713533 0.88212472
0.37659577 -0.17810316 0.91687322
0.39566889 -0.18330804 0.94366777
0.4073264 -0.18586636 0.95683742
0.38434938 -0.17025301 0.87646103
0.45779309 -0.17920336 0.92253691
0.44359839 -0.16511279 0.84999889
0.45450675 -0.15346068 0.79001355
0.48252219 -0.1252342 0.64470392
0.48603863 -0.12163136 0.62615645
-0.07440342 -0.062084045 0.32283932
-0.084938623 -0.080591194 0.41907707
-0.066724375 -0.065377519 0.33996543
0.10148393 -0.15431081 0.80242139
0.11824472 -0.16578777 0.86210287
0.15966283 -0.17066841 0.88748223
0.18559982 -0.17010088 0.88453132
0.20650728 -0.16864812 0.87697643
0.21494222 -0.1693868 0.88081723
0.24020101 -0.16861609 0.87681019
0.30485713 -0.17124861 0.89049953
0.31252223 -0.17127703 0.89064699
0.33680144 -0.16913028 0.87948352
0.39861947 -0.17311907 0.90022576
0.40260124 -0.17317663 0.90052438
0.43980089 -0.17972638 0.93458343
0.44925943 -0.17793448 0.92526615
0.46278745 -0.17857589 0.92860138
0.4379043 -0.16825269 0.87492001
0.43870321 -0.15468767 0.80438125
0.4105899 -0.13573216 0.7058118
0.41140491 -0.13451892 0.69950289
0.45426828 -0.11910186 0.6193338
0.48320463 -0.12172277 0.63296264
-0.079130724 -0.058815662 0.30896702
-0.076588616 -0.058892 0.30936846
-0.064884439 -0.063624963 0.33423075
-0.064385936 -0.063838981 0.33535555
-0.068108186 -0.069067284 0.36282057
-0.069624878 -0.079677351 0.41855672
-0.068979211 -0.07996618 0.42007408
-0.048660085 -0.064851709 0.34067529
0.097407386 -0.16014712 0.84127653
0.1096618 -0.16505994 0.86708391
0.1174849 -0.16305698 0.85656238
0.12992409 -0.16490316 0.86626071
0.12818813 -0.15819106 0.8310017
0.1569338 -0.17009686 0.89354408
0.15719086 -0.16632722 0.87374169
0.16624485 -0.16792706 0.88214606
0.18491785 -0.16948871 0.89035004
0.19316159 -0.16674881 0.87595576
0.23476563 -0.16975649 0.89175636
0.24111293 -0.16371317 0.86000967
0.26117122 -0.16477095 0.86556625
0.27661276 -0.16515389 0.86757767
0.27318978 -0.1620241 0.85113651
0.28442124 -0.16756949 0.88026702
0.29647526 -0.1658922 0.87145662
0.3910664 -0.16976058 0.89177769
0.43497866 -0.17595851 0.92433649
0.43472967 -0.17349385 0.91138923
0.45738903 -0.17698556 0.92973179
0.43046096 -0.1583122 0.83163762
0.42061889 -0.1497457 0.78663689
0.42109227 -0.14931741 0.78438699
0.43447918 -0.15164924 0.79663616
0.41193232 -0.13479918 0.70812017
0.48382667 -0.119311 0.62675858
-0.080167308 -0.058009233 0.30787575
-0.075906806 -0.063230641 0.33558747
-0.10525414 -0.090235092 0.47890964
-0.072990209 -0.076758161 0.40738243
-0.072497621 -0.078103617 0.41452307
-0.053361267 -0.064591579 0.34280989
-0.047844745 -0.06127971 0.32523346
-0.046611223 -0.068680763 0.36451265
0.098340005 -0.16002931 0.84933305
0.13501586 -0.16046815 0.8516618
0.18285075 -0.16760726 0.88955176
0.21619365 -0.1654785 0.87825364
0.21853209 -0.16441303 0.87259912
0.23193575 -0.16599728 0.88100678
0.26803741 -0.16856977 0.89465964
0.3244521 -0.16053024 0.8519913
0.41180453 -0.17272773 0.91672802
0.43534231 -0.17590463 0.93358904
0.42727187 -0.16727687 0.88779855
0.45013392 -0.17391022 0.92300439
0.45754868 -0.17523889 0.93005532
0.42479381 -0.15463224 0.82068902
0.42826968 -0.15462062 0.82062727
0.41246301 -0.13408686 0.71164662
0.48659429 -0.12180313 0.64645225
-0.080840409 -0.057421338 0.30793357
-0.10358798 -0.093336724 0.5005362
-0.094689041 -0.087117612 0.46718511
-0.048905969 -0.064817838 0.34759814
0.094769195 -0.15549755 0.83388627
0.10633277 -0.15677974 0.84076208
0.12063868 -0.1590569 0.85297447
0.12294213 -0.15968049 0.85631764
0.1339433 -0.16419192 0.8805114
0.15475288 -0.16430631 0.88112509
0.22535588 -0.15962358 0.85601312
0.2374434 -0.16162464 0.86674392
0.28153518 -0.15727885 0.84343874
0.31934226 -0.16182075 0.86779577
0.34295443 -0.16515283 0.88566428
0.40606514 -0.17018218 0.91263592
0.42071941 -0.17381898 0.93213904
0.44101948 -0.17635982 0.9457646
0.43112502 -0.16704352 0.89580381
0.42313093 -0.15370682 0.82428318
0.44031385 -0.15054639 0.80733448
0.41410208 -0.13422048 0.7197839
0.43367124 -0.13700047 0.73469228
0.48284823 -0.11927941 0.63965881
0.49133438 -0.11901686 0.63825089
-0.079912886 -0.057100393 0.30943841
-0.078117952 -0.063729428 0.34536234
-0.10571059 -0.090516575 0.49052677
-0.065019451 -0.064650953 0.35035655
-0.067229778 -0.071810931 0.3891575
-0.070009224 -0.076677144 0.4155286
-0.071899749 -0.081863485 0.44363451
0.10230419 -0.15723923 0.85211116
0.12224012 -0.15711361 0.85143054
0.12452977 -0.15321356 0.83029604
0.13692676 -0.16155866 0.87551922
0.13965988 -0.15624259 0.84671062
0.14662805 -0.1598943 0.86649919
0.1570064 -0.16104151 0.87271643
0.1606807 -0.16098484 0.87240893
0.17668922 -0.16372401 0.88725358
0.23923144 -0.16114375 0.87327057
0.24334575 -0.16264616 0.8814128
0.25824264 -0.16868512 0.91413879
0.25077334 -0.16017057 0.86799681
0.2717613 -0.16387697 0.88808209
0.2891188 -0.15983111 0.86615723
0.29209045 -0.16044676 0.86949283
0.29829648 -0.16078663 0.87133473
0.32146043 -0.16905069 0.91612029
0.32794586 -0.16540861 0.89638263
0.32386488 -0.1624013 0.88008571
0.38392019 -0.17338252 0.93959504
0.3763957 -0.16650058 0.90230024
0.38909853 -0.1661603 0.90045673
0.40154693 -0.16814946 0.91123617
0.4507845 -0.16835362 0.91234255
0.40292844 -0.13118656 0.71092588
0.40652865 -0.13136789 0.71190876
0.48792735 -0.11794156 0.63914901
0.49032015 -0.11785992 0.6387068
0.49152887 -0.11782243 0.63850379
-0.084034592 -0.057973467 0.31751493
-0.081979319 -0.057959713 0.31744003
-0.06982214 -0.074718453 0.4092263
-0.05275863 -0.062746838 0.34365809
-0.047824379 -0.064007215 0.35056186
-0.046405252 -0.064116932 0.3511627
-0.045748577 -0.064248666 0.35188377
0.11190268 -0.14667828 0.80334318
0.11432521 -0.14758942 0.80833441
0.12608604 -0.1513368 0.8288579
0.14749202 -0.15522075 0.85012996
0.17668134 -0.16199166 0.88721418
0.17933069 -0.15765269 0.86344939
0.2163009 -0.15769675 0.86369151
0.21957639 -0.15873009 0.86935061
0.24349244 -0.15502866 0.84907776
0.28226134 -0.15539108 0.85106325
0.33746779 -0.16180113 0.88616985
0.34494793 -0.16355154 0.8957572
0.36654362 -0.16909817 0.92613536
0.39221796 -0.16491182 0.9032076
0.39078456 -0.16270754 0.89113486
0.40359545 -0.16641928 0.91146314
0.44536948 -0.16601498 0.90924871
0.44782275 -0.16548526 0.90634805
0.39729333 -0.12847336 0.70363712
0.43697825 -0.13467871 0.73762351
0.47066838 -0.11716338 0.64169323
0.49622971 -0.12281073 0.67262328
0.48510832 -0.11635042 0.63724041
0.48998326 -0.1162145 0.63649601
-0.089342676 -0.060979091 0.33757195
-0.084011756 -0.072580278 0.40179396
-0.063212529 -0.058179274 0.32207224
-0.062354814 -0.062125765 0.34391892
-0.04901848 -0.063905872 0.3537733
-0.045378685 -0.065194048 0.36090571
0.1012653 -0.14969766 0.82870543
0.1037197 -0.14814331 0.82010132
0.10644972 -0.14951603 0.8276999
0.11150437 -0.14917801 0.82582909
0.12750781 -0.15357131 0.85014904
0.17611106 -0.15476631 0.85676473
0.18524536 -0.15629281 0.86521572
0.18779503 -0.15236004 0.84344399
0.22741246 -0.15861729 0.87808317
0.23837094 -0.16356112 0.90545189
0.2447754 -0.16015399 0.88659066
0.24812053 -0.15865786 0.87830782
0.25511563 -0.15718457 0.87015247
0.26425651 -0.15933186 0.88203961
0.29610211 -0.17238413 0.9542948
0.27949569 -0.15421763 0.8537274
0.28192759 -0.15455061 0.85557097
0.30828688 -0.16166069 0.89493132
0.35434309 -0.16439214 0.91005254
0.33824059 -0.15606505 0.86395431
0.36166242 -0.16418301 0.9088943
0.380705 -0.1640176 0.90797871
0.36765397 -0.15679629 0.86800241
0.42828396 -0.16440257 0.9101094
0.41579255 -0.13771541 0.76237381
0.41709948 -0.12904547 0.71437746
0.46157151 -0.11851007 0.65605533
0.43460384 -0.11057828 0.61214554
