# .PCD v0.7 - Point Cloud Data file format
VERSION 0.7
FIELDS x y z
SIZE 4 4 4
TYPE F F F
COUNT 1 1 1
WIDTH 1399
HEIGHT 1
VIEWPOINT 0 0 0 1 0 0 0
POINTS 1399
DATA ascii
0.34830675 -0.25294968 0.83364022
0.37680453 -0.24257033 0.83695263
0.41502848 -0.24437876 0.87353247
0.4361631 -0.23067802 0.86372447
0.45617682 -0.22010124 0.85933399
0.42190078 -0.14396396 0.67429411
0.43306506 -0.14364184 0.68324077
0.42009664 -0.13359372 0.651555
0.41266623 -0.12939808 0.63659036
0.4080565 -0.12705538 0.62783813
0.41583416 -0.12672506 0.63385481
0.40522042 -0.1052976 0.58094674
0.44417447 -0.078925595 0.56058121
-0.081716381 -0.24974242 0.45942155
-0.057521947 -0.22204791 0.42347527
-0.033018965 -0.13771579 0.27152303
-0.036476005 -0.19317639 0.38239154
0.30414838 -0.31602544 0.92895025
0.28686383 -0.29148895 0.86364222
0.31558394 -0.28004181 0.86496127
0.32111153 -0.27582991 0.86109185
0.34714335 -0.26463866 0.86061263
0.33947679 -0.25318858 0.83048117
0.36052251 -0.24528156 0.83243656
0.41811013 -0.24841 0.88862473
0.39864966 -0.22718942 0.82824296
0.42127088 -0.22174671 0.83661848
0.44360748 -0.22047479 0.85331017
0.44259432 -0.21844596 0.84826976
0.44530678 -0.21519101 0.84393156
0.34606954 -0.14823036 0.62070805
0.38093004 -0.15077162 0.65605074
0.38939038 -0.14162566 0.64458615
0.4021326 -0.1401531 0.65257466
0.39048201 -0.1172185 0.5954234
0.40886158 -0.11497542 0.60670167
0.41092268 -0.11059579 0.59949201
0.45195422 -0.11299939 0.63988489
0.45488515 -0.10312201 0.62214053
0.43954015 -0.083087973 0.56775093
0.48438254 -0.082395516 0.60508132
-0.068291932 -0.19659556 0.36375678
-0.047748413 -0.18000428 0.34736377
-0.046243995 -0.1742267 0.33675116
-0.036255304 -0.15114407 0.29780483
0.29590252 -0.30684707 0.90733445
0.33669657 -0.25783083 0.84163058
0.34337139 -0.25102344 0.83338153
0.34181231 -0.24804653 0.8258872
0.36191601 -0.24323159 0.83340579
0.36549488 -0.23841575 0.82657754
0.37048194 -0.22950654 0.81252772
0.38889429 -0.2370878 0.84415025
0.43063936 -0.22689244 0.85935539
0.44143835 -0.22123708 0.8570627
0.43634903 -0.21117821 0.83189517
0.4589074 -0.21422301 0.85775769
0.34681723 -0.14347017 0.61450207
0.35749882 -0.14676112 0.63056338
0.37219375 -0.15160553 0.65331256
0.38281178 -0.15259738 0.6645757
0.42834222 -0.14496085 0.68834537
0.40500915 -0.12769692 0.6324771
0.40462425 -0.11784291 0.61181509
0.40699607 -0.11180355 0.60141563
0.41804269 -0.11068305 0.60869348
0.44406131 -0.11079733 0.63151479
0.45596209 -0.1104156 0.64105767
0.43890214 -0.081998929 0.56762791
0.44921127 -0.081915088 0.57640404
0.43449944 -0.078514941 0.55661929
0.45209989 -0.078417107 0.57169563
0.4587926 -0.077606723 0.57583344
-0.051109757 -0.19038112 0.36771432
-0.048976664 -0.18091069 0.34994271
-0.04303522 -0.1682528 0.32888395
-0.034107257 -0.13746524 0.27284756
0.20790914 -0.28292793 0.78541535
0.29188058 -0.29930168 0.89257765
0.31095436 -0.25710076 0.82172847
0.33628374 -0.2603873 0.8506276
0.3316187 -0.24914387 0.82325268
0.33389932 -0.24698967 0.82077605
0.35767585 -0.22395685 0.79376197
0.36772084 -0.22836313 0.81165487
0.38775697 -0.2352109 0.84332132
0.4451617 -0.22492827 0.87206095
0.43658069 -0.21452709 0.84301722
0.46375704 -0.22440746 0.88719523
0.38648391 -0.13853726 0.64181101
0.42637908 -0.14117198 0.68205965
0.44974867 -0.12609641 0.67118627
0.41649473 -0.11090466 0.61069834
0.46290705 -0.10203622 0.63278425
0.45176452 -0.081402309 0.58029526
0.44257504 -0.070681028 0.55005735
0.4513292 -0.071492448 0.5593729
-0.07695698 -0.21608041 0.40048772
-0.043184772 -0.16669759 0.32719967
0.24310468 -0.26902872 0.79113102
0.28447697 -0.28862423 0.86818951
0.34434429 -0.24568468 0.83118045
0.34863198 -0.24675542 0.83716667
0.33035001 -0.23077214 0.78785789
0.36108088 -0.22488038 0.80250216
0.32128298 -0.13904622 0.58884078
0.34258077 -0.13984734 0.60916477
0.37493479 -0.1506352 0.65997642
0.38258648 -0.14724426 0.65961468
0.42067057 -0.13722229 0.67209625
0.45027801 -0.11190306 0.64528716
0.47091424 -0.1019366 0.64260125
0.41445854 -0.072364263 0.53154862
-0.067582548 -0.16436793 0.30254012
-0.076872244 -0.21368399 0.39760223
-0.064975828 -0.22858576 0.43926489
-0.044676006 -0.16501385 0.32404757
-0.043345697 -0.16526377 0.32574144
0.20989606 -0.27584809 0.78006083
0.30344832 -0.29561213 0.90375018
0.31421131 -0.30051142 0.92347682
0.31352788 -0.28536567 0.89116961
0.31284368 -0.25645798 0.83005363
0.3359924 -0.25791845 0.85347915
0.31602028 -0.23217712 0.78202021
0.38088608 -0.24631721 0.8686958
0.37359607 -0.22954537 0.8271718
0.325582 -0.14400342 0.60585433
0.32647187 -0.14131704 0.60101342
0.32846728 -0.14013849 0.6003024
0.35345531 -0.14423966 0.63087416
0.36331815 -0.14608462 0.64341503
0.3595804 -0.13558972 0.61815625
0.3984319 -0.11140446 0.60171294
0.39800259 -0.10801587 0.59424198
0.39896747 -0.10747057 0.5939495
0.47082853 -0.10818851 0.6586827
0.42994359 -0.091974624 0.58876675
-0.034662105 -0.21759687 0.44519532
0.24016619 -0.27632859 0.81167495
0.31014755 -0.28134394 0.88408387
0.32000935 -0.28750566 0.90576273
0.32540923 -0.28048918 0.89577544
0.32486764 -0.25855929 0.8491627
0.32343164 -0.25344455 0.83713382
0.32929039 -0.25186643 0.83899271
0.35774571 -0.25062245 0.86152744
0.38065377 -0.243132 0.86601859
0.43314004 -0.23289488 0.89087665
0.42017627 -0.2228445 0.85827428
0.41092041 -0.21184909 0.82696193
0.44745818 -0.20976456 0.85487324
0.35891765 -0.14029171 0.63046026
0.37735364 -0.13133644 0.62791687
0.38256422 -0.13026851 0.6302762
0.39540008 -0.11373305 0.60683638
0.39417106 -0.11254095 0.60324186
0.39640105 -0.10985036 0.59955305
0.39646608 -0.1058191 0.59112978
0.43002534 -0.10970185 0.62896198
0.44290257 -0.092269219 0.60367113
0.4490605 -0.090594515 0.605591
0.44584027 -0.084205903 0.5893048
-0.066959471 -0.16128656 0.29975039
-0.065977804 -0.16211347 0.30237037
-0.069160715 -0.17936724 0.33602098
-0.04496501 -0.16208711 0.32097325
0.23401079 -0.27129704 0.79958236
0.30511048 -0.27591237 0.87247461
0.35419273 -0.24517369 0.85107255
0.36049703 -0.24749078 0.86156964
0.34879205 -0.23433252 0.82335693
0.34432152 -0.22968905 0.80957067
0.35767999 -0.23120888 0.82464522
0.44407374 -0.20990977 0.85633183
0.33279231 -0.14105985 0.61195815
0.35327446 -0.13913992 0.62608671
0.35374174 -0.13831773 0.62476343
0.35091382 -0.13526167 0.61579162
0.37921301 -0.14080656 0.65264314
0.36119765 -0.13324648 0.62066275
0.41919652 -0.12774004 0.66052312
0.38998896 -0.11119667 0.59961212
0.46293035 -0.10918368 0.66012692
0.49401951 -0.082685135 0.63171136
-0.065376304 -0.16293855 0.30625045
-0.073569015 -0.20372261 0.38559479
-0.064670295 -0.1757105 0.33401662
-0.056897391 -0.20873138 0.41110909
-0.038326412 -0.14775971 0.29813075
0.21020569 -0.28479171 0.81098771
0.23196034 -0.26822269 0.79519093
0.27056408 -0.25564742 0.80290967
0.33756045 -0.22253555 0.79232311
0.39167103 -0.23835966 0.87421495
0.39211974 -0.20897025 0.81217176
0.44610718 -0.21412979 0.8712948
0.44422916 -0.20130099 0.84236252
0.33682442 -0.14176579 0.62005669
0.34108958 -0.1424849 0.62538952
0.41078508 -0.13265324 0.6666739
0.41343269 -0.132525 0.66876352
0.38805577 -0.10559867 0.58891553
0.46874914 -0.10690642 0.66367793
0.46744445 -0.092230715 0.63133287
0.45224056 -0.083404899 0.59901816
-0.06679114 -0.15772419 0.2954649
-0.049549408 -0.16982049 0.33674645
0.24158752 -0.2678161 0.80691618
0.31091842 -0.26965812 0.87298447
0.33745104 -0.23354457 0.81964904
0.35711494 -0.21199125 0.79124862
0.43243051 -0.23025586 0.89774764
0.40762571 -0.21577197 0.84459001
0.4251053 -0.21991718 0.86910665
0.4538784 -0.21333314 0.88083428
0.34983891 -0.14400916 0.63956511
0.35534015 -0.14516801 0.64696938
0.3665159 -0.12744117 0.61913306
0.41278246 -0.12740655 0.66052341
0.41113779 -0.12596311 0.65596753
0.38657784 -0.11328068 0.60687572
0.37393075 -0.10552856 0.57898802
0.39014432 -0.10279984 0.58769232
0.39207864 -0.10251956 0.58882707
0.41448227 -0.10349083 0.61097962
0.45187175 -0.11027736 0.65897948
0.44343534 -0.10736869 0.64520806
0.44848487 -0.08379931 0.59940523
0.44906864 -0.081095017 0.59415382
-0.066952564 -0.15686315 0.29504198
-0.064957038 -0.1559992 0.29498464
-0.066654712 -0.18957807 0.36551756
-0.051208239 -0.17343087 0.34477299
-0.048498493 -0.16515867 0.32945988
0.21024001 -0.26464069 0.77591509
0.21362349 -0.26603168 0.7819472
0.26722214 -0.25503305 0.80660248
0.26784274 -0.25127846 0.79910386
0.30720368 -0.26549459 0.86505187
0.30969116 -0.25473329 0.84419698
0.35294986 -0.22825314 0.82631892
0.38620058 -0.21916021 0.83674341
0.45746621 -0.20903438 0.87917846
0.3444742 -0.13579166 0.62026101
0.41722286 -0.13154268 0.67664361
0.40590447 -0.12610672 0.65478742
0.38757297 -0.10352012 0.58980995
0.40245375 -0.10105047 0.5979085
0.42354792 -0.10310164 0.62130308
0.45440105 -0.10724016 0.65796387
0.44246745 -0.094851613 0.62063289
0.44411996 -0.092153408 0.61632997
0.44218773 -0.078824721 0.5859865
0.44080976 -0.066833392 0.55901164
0.47449589 -0.070142247 0.596443
0.4937422 -0.071730964 0.61718154
-0.075016133 -0.17504039 0.32852849
-0.071513526 -0.16517462 0.31041777
-0.065680504 -0.15504552 0.29384735
-0.071358636 -0.24534263 0.48347059
-0.033281162 -0.13046846 0.27014503
0.20187075 -0.26678666 0.77688348
0.24962747 -0.24661119 0.77656782
0.26666871 -0.25140199 0.80231613
0.31065288 -0.26503763 0.8715142
0.32985887 -0.25261632 0.86209643
0.40096956 -0.22773719 0.87276119
0.41646576 -0.21777853 0.86529911
0.43705729 -0.20750052 0.86175764
0.45874378 -0.20978658 0.88630575
0.3563399 -0.14353323 0.65077144
0.38002533 -0.13999195 0.66455925
0.35805792 -0.12442407 0.61110997
0.40594754 -0.12885433 0.66398573
0.40219775 -0.12483923 0.65193361
0.38213792 -0.10347518 0.5877077
0.38385493 -0.10314146 0.58854127
0.43959725 -0.095497392 0.62247759
0.44241944 -0.094565421 0.62302071
0.44100511 -0.081760071 0.59412146
0.42813754 -0.068835191 0.55460465
0.48701945 -0.075109608 0.62140149
-0.071836114 -0.20119232 0.38986582
-0.071937464 -0.20489904 0.39780903
-0.069828667 -0.21746282 0.42696187
-0.072117947 -0.24631287 0.48742279
-0.034238983 -0.13177334 0.27354771
-0.036725938 -0.21203656 0.44528374
0.19960719 -0.26589653 0.77683187
0.24404266 -0.24692392 0.77608746
0.33908227 -0.25822255 0.88695711
0.30991063 -0.22761334 0.79408926
0.36148143 -0.2347838 0.85650313
0.40671676 -0.22791269 0.88271946
0.40763938 -0.2151875 0.85597211
0.38281351 -0.13686416 0.66361868
0.38406086 -0.13628943 0.66350615
0.39316729 -0.12660241 0.65078294
0.40676135 -0.12237229 0.65396726
0.39668146 -0.11144427 0.62111634
0.38209167 -0.10249111 0.58844787
0.40087152 -0.094064102 0.58724797
0.40420619 -0.090370975 0.58227235
0.4517619 -0.09630499 0.63835675
0.46675995 -0.088562205 0.635203
0.42224905 -0.073918328 0.56300372
0.42678675 -0.068917222 0.55628651
0.47613445 -0.073009349 0.61000693
-0.074757062 -0.22950579 0.45096293
-0.071111947 -0.22510935 0.44471228
-0.065529481 -0.23413536 0.46947631
-0.048481233 -0.16245592 0.32886371
-0.037218954 -0.13529272 0.27996305
-0.032928593 -0.12693787 0.26567668
0.19548918 -0.26271427 0.770091
0.27951553 -0.26081705 0.84268415
0.30943054 -0.25541502 0.85823077
0.36061993 -0.24995328 0.89307332
0.33649412 -0.23198581 0.83189398
0.38673174 -0.2190569 0.84959769
0.42334801 -0.23040771 0.90776503
0.41986889 -0.21692342 0.87520778
0.42162001 -0.20677361 0.85469186
0.45337495 -0.21713638 0.90626764
0.43434021 -0.20514719 0.86276329
0.47181803 -0.20976652 0.90705055
0.38541123 -0.13569869 0.66676587
0.4027096 -0.12474778 0.65870106
0.40257731 -0.1228317 0.65440553
0.39358321 -0.11561441 0.63046706
0.40941694 -0.11308719 0.63941884
0.37996241 -0.098603591 0.5809654
0.40340692 -0.089946091 0.58350974
0.4037424 -0.087111481 0.57764
0.43660557 -0.092756115 0.61994725
0.4527446 -0.094652787 0.63881683
0.44856557 -0.083281301 0.61022383
0.44655919 -0.082184657 0.60600263
0.42821714 -0.075346202 0.57435369
0.43420917 -0.069826126 0.5677976
0.47794947 -0.072244674 0.61300802
-0.077972919 -0.20601496 0.39896405
-0.071563527 -0.22064823 0.43689132
-0.072814673 -0.24408549 0.48707104
-0.065720707 -0.22242454 0.44614229
-0.038037725 -0.13477029 0.27957642
-0.037429836 -0.13463126 0.2798298
-0.036873143 -0.13498421 0.28111371
-0.033850268 -0.18351176 0.39016306
0.20952377 -0.28495154 0.83560479
0.24388139 -0.24065483 0.77011645
0.30721647 -0.272333 0.89759964
0.31303033 -0.24083512 0.83395314
0.30420449 -0.22687946 0.79529268
0.32114506 -0.23144591 0.82083607
0.3983503 -0.22249308 0.87206239
0.4026486 -0.20391181 0.83531231
0.45632786 -0.20314831 0.88288945
0.46039036 -0.19459671 0.86788863
0.34777692 -0.12821381 0.61919034
0.38378915 -0.12528598 0.64581811
0.40431193 -0.1115007 0.63445747
0.39282635 -0.098582186 0.59562826
0.44328675 -0.080544434 0.60242128
0.43536147 -0.07768742 0.58889294
0.4194304 -0.072796591 0.56356585
0.48902601 -0.065473303 0.61137944
-0.079589903 -0.25005615 0.49656019
-0.067683078 -0.22986999 0.46310154
-0.065514714 -0.22827303 0.46158493
-0.039557707 -0.13517356 0.2805768
-0.033531956 -0.12796709 0.27026832
-0.032678891 -0.13192898 0.27977595
-0.032228939 -0.16456564 0.35203248
0.17511629 -0.27053776 0.77644497
0.2876358 -0.26134697 0.85993892
0.29794192 -0.26565912 0.87893182
0.27718481 -0.24178097 0.80723506
0.30023897 -0.24197006 0.8289035
0.32984743 -0.23632546 0.84377229
0.31441274 -0.22389762 0.80218726
0.37781495 -0.23390441 0.8826611
0.45873529 -0.19837311 0.87904352
0.45418862 -0.18788175 0.85175788
0.39715388 -0.14393331 0.70243877
0.37804404 -0.12146961 0.63537413
0.39249438 -0.10555843 0.61367017
0.42509732 -0.088984273 0.6072408
0.43428451 -0.090175182 0.61833155
0.4535473 -0.088049032 0.63140863
0.49512091 -0.06997636 0.62994999
-0.081111714 -0.20786609 0.40445474
-0.057996303 -0.13794315 0.27115238
-0.073167443 -0.20166729 0.39809763
0.16288239 -0.28603214 0.80340898
0.21228576 -0.27004725 0.81380099
0.28137293 -0.25490066 0.84428036
0.3009955 -0.25175703 0.8555001
0.30080783 -0.24537227 0.84119874
0.33134991 -0.24995215 0.87962216
0.35552585 -0.22629099 0.84966207
0.3841238 -0.19677262 0.81083763
0.42977023 -0.20829979 0.87862414
0.43082881 -0.20415549 0.87043488
0.4319402 -0.20314302 0.86922383
0.43911788 -0.18455343 0.8347407
0.34986088 -0.13088918 0.63332611
0.37056845 -0.11627746 0.62017661
0.38869703 -0.10769394 0.61797595
0.39978573 -0.10234217 0.61640561
0.41575676 -0.095053576 0.61507201
0.46830553 -0.094607159 0.66275829
0.46648872 -0.093435884 0.65848356
0.40214139 -0.070380494 0.54786819
0.40893894 -0.069676228 0.5526064
-0.072524987 -0.19704708 0.39057353
-0.073743112 -0.23136047 0.46575624
-0.070019595 -0.23143278 0.46938297
-0.058315441 -0.20253792 0.41601086
-0.048098423 -0.16388252 0.3395471
-0.040006343 -0.13407943 0.2807931
0.20662597 -0.27333456 0.82005662
0.21030259 -0.27228281 0.8211391
0.2240583 -0.27481565 0.83957535
0.2338748 -0.26737261 0.83215743
0.31370524 -0.25641918 0.88209605
0.34330681 -0.22997841 0.85083973
0.354415 -0.21413662 0.82594466
0.40567341 -0.2208802 0.88865018
0.44797021 -0.21555521 0.91617322
0.43904194 -0.19166739 0.85473424
0.36838263 -0.11910352 0.62758124
0.37129638 -0.1102346 0.61056745
0.39965138 -0.10796031 0.63189995
0.39953214 -0.094893895 0.60272801
0.42165694 -0.095370643 0.62437999
0.41995236 -0.089587346 0.60993099
0.43244597 -0.087706588 0.61737603
0.4647443 -0.091972202 0.65692371
0.45749131 -0.087429054 0.64006925
0.42054346 -0.072054207 0.57148582
0.47808453 -0.06147274 0.60150635
-0.065722048 -0.14539811 0.28358951
-0.082100868 -0.21951447 0.43397295
-0.07149893 -0.19097686 0.38008651
-0.053146668 -0.17478885 0.36105877
-0.030294986 -0.12976199 0.28176424
0.27816236 -0.24577591 0.82961196
0.32011268 -0.23758338 0.85052896
0.32570124 -0.23764925 0.85590261
0.33414277 -0.23963779 0.86824328
0.33996534 -0.22485106 0.84063011
0.36402422 -0.21684505 0.84523124
0.35783195 -0.21161479 0.82774758
0.40868419 -0.21779953 0.88913274
0.38494518 -0.19475485 0.81541079
0.40911388 -0.19597045 0.84073156
0.44874197 -0.2004378 0.88778031
0.44102672 -0.19410339 0.86640269
0.42709491 -0.17975542 0.82129586
0.43457246 -0.17875695 0.82605731
0.45795414 -0.16807888 0.82405102
0.49677935 -0.17943051 0.88574028
0.36669388 -0.11755078 0.62573719
0.38216808 -0.11419488 0.6327064
0.38184106 -0.10799151 0.6185317
0.3938812 -0.10706503 0.62772048
0.41651115 -0.095514007 0.62306035
0.45063105 -0.077728048 0.61520648
0.40779427 -0.068219163 0.55388576
0.44539014 -0.0609565 0.57280886
0.462715 -0.060259249 0.58745301
-0.066456854 -0.14099883 0.27458423
-0.086099215 -0.2167403 0.42634517
-0.085903749 -0.22505559 0.44521672
-0.079514854 -0.21399045 0.42635304
-0.06777326 -0.18001042 0.3610211
-0.070875548 -0.19904222 0.4008773
-0.075156316 -0.24136549 0.49197155
-0.065744787 -0.21844508 0.4493047
-0.053286139 -0.17325041 0.35944349
0.18941689 -0.28779042 0.84494466
0.19956484 -0.28603679 0.85054064
0.20739917 -0.26719728 0.8155629
0.24748194 -0.24147211 0.79541725
0.27382854 -0.24534708 0.82888591
0.32286489 -0.25687915 0.9008857
0.2963815 -0.22890417 0.81312692
0.3345184 -0.22199158 0.83343166
0.35353708 -0.22147918 0.85015327
0.36309093 -0.21678628 0.84858453
0.40590778 -0.19320732 0.835832
0.42259246 -0.17933401 0.82033288
0.42166978 -0.17759685 0.81556165
0.45611691 -0.1847259 0.86395609
0.46727133 -0.18633386 0.87805235
0.37130356 -0.10995869 0.61621976
0.37553388 -0.10774732 0.61522555
0.38149732 -0.10603117 0.6169728
0.40390226 -0.10786167 0.64214242
0.40755233 -0.099563763 0.62692404
0.41153738 -0.087231115 0.60295302
0.41881737 -0.081429593 0.59675586
0.47136545 -0.058508556 0.59462684
-0.11016384 -0.24695484 0.47421682
-0.065557964 -0.16925164 0.34079385
-0.07130006 -0.19546254 0.39458662
-0.071875848 -0.22783563 0.46718028
-0.066896714 -0.22162114 0.45784298
-0.050056156 -0.15648384 0.32658827
-0.039443988 -0.13684765 0.29224777
-0.03509004 -0.13029945 0.28156593
0.20426543 -0.25741759 0.79479027
0.20541447 -0.25617546 0.79306942
0.24667008 -0.23977977 0.79498827
0.31126514 -0.25980076 0.9012211
0.31281337 -0.25881562 0.90045798
0.32361647 -0.25627464 0.90491903
0.29244843 -0.22493932 0.80469251
0.34788546 -0.24466151 0.90160161
0.31546706 -0.21731792 0.80921221
0.32033935 -0.21876094 0.81707293
0.35286859 -0.22339624 0.8582648
0.38866577 -0.22669843 0.89953077
0.40577504 -0.21040602 0.87888014
0.41888762 -0.17653146 0.81473398
0.464701 -0.18678008 0.8811518
0.3692494 -0.11541069 0.62977296
0.3638714 -0.10593387 0.60328388
0.37292984 -0.10599938 0.61198676
0.4106397 -0.10946384 0.65542537
0.42101678 -0.10605161 0.65751612
0.40583056 -0.09810058 0.62521178
0.40914842 -0.093312487 0.61752784
0.41859692 -0.088473313 0.61551797
0.41119644 -0.065623648 0.55690724
-0.10957787 -0.24845368 0.48078567
-0.10616522 -0.24643788 0.47944626
-0.065779224 -0.16318446 0.32869285
-0.077108547 -0.24037814 0.49325883
-0.062241882 -0.21357128 0.44648507
-0.032102749 -0.12719163 0.27890766
-0.033140868 -0.16047579 0.35351494
0.18380602 -0.29133269 0.85659206
0.18257268 -0.27087903 0.80896848
0.18889393 -0.2705119 0.81413364
0.19898427 -0.26089501 0.80186814
0.21218212 -0.2605249 0.81355238
0.26992467 -0.27214366 0.89473772
0.2664077 -0.247756 0.83601266
0.27666903 -0.24353176 0.83615696
0.27394065 -0.2391526 0.82362193
0.41807818 -0.22206603 0.92160296
0.40856537 -0.2121411 0.89003462
0.41538405 -0.1965338 0.86105943
0.43278095 -0.17823149 0.83600199
0.44959116 -0.18223163 0.86103946
0.43564048 -0.16488691 0.8084082
0.37761682 -0.11696181 0.64449924
0.37172979 -0.10806431 0.61870509
0.37448028 -0.10799504 0.62115806
0.43575156 -0.11317219 0.69106269
0.42653295 -0.083089568 0.61399227
0.40947062 -0.076897599 0.58373767
0.40088338 -0.066091821 0.55104661
0.47150925 -0.075220682 0.6388036
0.46922868 -0.058050178 0.5976432
0.47098923 -0.056395788 0.5955562
-0.068936214 -0.14170416 0.27847204
-0.068499885 -0.22422616 0.46730074
-0.063101523 -0.21065535 0.44146428
-0.059057508 -0.19822285 0.41693562
0.18092532 -0.27091023 0.81176305
0.26453179 -0.26113352 0.8691752
0.24910618 -0.23791806 0.80145901
0.2593905 -0.24275474 0.82231003
0.27428862 -0.24915846 0.85113931
0.29896748 -0.25209042 0.88136899
0.29588574 -0.2234164 0.81296259
0.33733249 -0.23319457 0.87481457
0.32624662 -0.21677887 0.82676256
0.3923907 -0.19494595 0.83999443
0.40641522 -0.17420235 0.80600798
0.46611026 -0.18457985 0.88663203
0.45675987 -0.12034646 0.73105782
0.44398218 -0.094135523 0.65902758
0.40198812 -0.065332264 0.55321538
0.47024757 -0.057143889 0.59961796
0.47266936 -0.05619524 0.59976166
-0.10765909 -0.23893033 0.46610293
-0.10734212 -0.24055815 0.47014305
-0.06655176 -0.13630235 0.26993307
-0.090603784 -0.23957774 0.48393473
-0.089252748 -0.24153444 0.48972109
-0.07135763 -0.22194941 0.46191773
-0.050453097 -0.15621535 0.33106968
-0.039916314 -0.1382554 0.29994413
-0.034803953 -0.12498279 0.27437833
0.19641638 -0.28188413 0.85612845
0.19819821 -0.28117228 0.85620236
0.21409933 -0.27181724 0.84996951
0.20717014 -0.2531735 0.80053425
0.21513225 -0.24947308 0.79967147
0.23611654 -0.26170146 0.84785151
0.31582165 -0.25328967 0.90493423
0.35608289 -0.21990818 0.86689907
0.35506666 -0.21754503 0.86050081
0.39998284 -0.19429362 0.85017931
0.44191092 -0.19669846 0.89588332
0.42920056 -0.17691632 0.83829498
0.45456648 -0.18433009 0.87962359
0.46616843 -0.18180773 0.8849529
0.39578131 -0.1232662 0.68311906
0.39672938 -0.11873311 0.67362231
0.39685893 -0.11410063 0.66311401
0.4301146 -0.11971761 0.70787972
0.43056679 -0.11137844 0.68917161
0.45985988 -0.096400455 0.68286681
0.42302462 -0.084760681 0.62084597
0.46634963 -0.084023073 0.66067642
0.41059986 -0.068400159 0.57138401
-0.066822246 -0.13593504 0.27036086
-0.092206679 -0.22159243 0.4435778
-0.090751693 -0.2283197 0.46050352
-0.050351646 -0.15737635 0.33570462
-0.050014243 -0.1594418 0.3407957
-0.039651543 -0.13870361 0.30292061
-0.037722018 -0.13292369 0.29144096
-0.033436451 -0.13369875 0.29735723
0.16918293 -0.27453023 0.81750971
0.16492653 -0.26519823 0.79187465
0.16870415 -0.2586295 0.78035516
0.18885075 -0.27415082 0.83557755
0.21929678 -0.25308469 0.81629008
0.25183535 -0.23201543 0.79901093
0.30277166 -0.24850801 0.88613176
0.32398912 -0.21657053 0.83286732
0.36075079 -0.21967097 0.87543082
0.35805243 -0.21287885 0.8571586
0.37891716 -0.21781412 0.88864392
0.34855193 -0.19926353 0.81658804
0.44505292 -0.2044861 0.92158943
0.40403411 -0.12075835 0.68886572
0.43394777 -0.11672308 0.70836681
0.42917389 -0.10807492 0.6838116
0.43602717 -0.1009692 0.67401516
0.44802088 -0.080306031 0.63788432
0.41492975 -0.070819296 0.58411866
0.40976119 -0.059105702 0.5521096
-0.089389354 -0.20066401 0.40023637
-0.09182705 -0.22684795 0.45862544
-0.08986032 -0.23242165 0.47346064
0.20125212 -0.27163649 0.84624511
0.22215733 -0.25526559 0.82850063
0.25229308 -0.26352176 0.87682766
0.25075287 -0.22395478 0.78353852
0.27456903 -0.24186169 0.84813803
0.33080792 -0.23886861 0.89563459
0.33190867 -0.22048174 0.8540414
0.3676492 -0.22610174 0.90167814
0.40659261 -0.19482598 0.86681437
0.43377385 -0.20115919 0.90782011
0.41147548 -0.17119776 0.81672221
0.46272218 -0.18193847 0.89124924
0.47356567 -0.16167815 0.85474098
0.39587438 -0.12502678 0.69449997
0.40178502 -0.12287319 0.69522536
0.40684924 -0.12242647 0.69909126
0.40735039 -0.12159193 0.69763982
0.45817173 -0.10406698 0.70617759
0.42412257 -0.082877718 0.6240564
0.4172608 -0.068883322 0.58494592
0.40101644 -0.063571982 0.5568983
0.41122064 -0.058369447 0.55470639
-0.072424263 -0.14400002 0.28682998
-0.089061387 -0.24074672 0.4963159
-0.036151782 -0.12441111 0.27642611
-0.035171811 -0.126333 0.28186291
0.15133664 -0.25918412 0.77320677
0.1919 -0.27366087 0.84643972
0.22027163 -0.25235903 0.8243531
0.23129773 -0.25147271 0.83301306
0.26046959 -0.26293606 0.88813394
0.29688233 -0.24164692 0.87390023
0.35805234 -0.23207366 0.91108215
0.37732276 -0.23055151 0.92628002
0.45947719 -0.17650409 0.88013613
0.41554636 -0.13106681 0.73140854
0.4079048 -0.12764236 0.71598655
0.42028695 -0.11641017 0.70183235
0.44452435 -0.11815421 0.72948104
0.42991784 -0.10778906 0.69109255
0.43205607 -0.10742079 0.69231385
0.44864547 -0.10604603 0.7052471
0.46568242 -0.10279664 0.71424264
0.48182184 -0.10547869 0.73620081
0.41809097 -0.081372872 0.61796755
0.4050498 -0.062638089 0.56157905
-0.07227429 -0.14071588 0.28092599
-0.075445905 -0.15339832 0.30756879
-0.060938232 -0.15192077 0.3182897
-0.039692305 -0.13656749 0.30305624
0.22293808 -0.25430068 0.83598077
0.2519505 -0.25869274 0.87465078
0.25432202 -0.22909653 0.807558
0.27675748 -0.23725405 0.84862769
0.28043032 -0.2359992 0.84927607
0.3086412 -0.23690102 0.8789764
0.40814424 -0.20888469 0.91056669
0.41301465 -0.20797743 0.91320151
0.40477061 -0.18393086 0.84874445
0.45010799 -0.17295972 0.86734599
0.45545274 -0.17360955 0.87409627
0.47440073 -0.17650862 0.89942342
0.46129215 -0.17033724 0.87213153
0.46867061 -0.15482673 0.84297031
0.42432314 -0.13476662 0.75255936
0.43379647 -0.11604162 0.71790743
0.44061562 -0.11689191 0.72656953
0.46633214 -0.10626107 0.72678351
0.43031743 -0.074627213 0.6173768
0.42699164 -0.069171347 0.60132933
0.40892127 -0.062920377 0.56899941
-0.067134485 -0.2197179 0.47389817
-0.037218388 -0.12371463 0.2769163
0.1401639 -0.26293457 0.77954024
0.15693308 -0.27314082 0.82008803
0.18358749 -0.25844565 0.81163162
0.21106473 -0.27244693 0.87165254
0.23529245 -0.25117165 0.84529483
0.25179529 -0.25508314 0.87073755
0.26199281 -0.24563 0.858468
0.25463453 -0.22628784 0.80562609
0.26537576 -0.23108059 0.82748413
0.31222135 -0.20796116 0.81900626
0.36993498 -0.21994768 0.90399325
0.38030717 -0.20997071 0.89066029
0.3906045 -0.20864932 0.89766449
0.40395012 -0.18667798 0.85897052
0.40541229 -0.18003391 0.84474009
0.41962856 -0.1818375 0.86296517
0.49872512 -0.16721 0.90620822
0.46717334 -0.15176357 0.83877528
0.3971875 -0.11811593 0.69064903
0.45617509 -0.10728429 0.72308034
0.46949175 -0.10855257 0.73915893
0.39589033 -0.072210602 0.58112556
0.39719093 -0.071770206 0.58136553
0.40827778 -0.071744777 0.59220147
0.41922671 -0.073018998 0.60596699
0.42972636 -0.074182481 0.61902976
0.43294922 -0.074036978 0.62185383
0.40897802 -0.055171296 0.55380839
-0.069242485 -0.14239827 0.29118153
-0.035593458 -0.12809768 0.29051429
-0.034098417 -0.13982123 0.31978795
0.17312799 -0.27056918 0.83449751
0.18365522 -0.2521807 0.80129707
0.22400798 -0.25361016 0.84454846
0.23450343 -0.24942924 0.84500289
0.26735923 -0.22957993 0.83039594
0.29262322 -0.23291384 0.86325723
0.29553467 -0.23306113 0.86648226
0.29519677 -0.22875322 0.85593438
0.30621716 -0.22682323 0.8622449
0.32087359 -0.21233201 0.84236377
0.35200998 -0.21360016 0.87612826
0.41290957 -0.18053296 0.85788363
0.46522251 -0.16899265 0.88219798
0.46458089 -0.15202612 0.84133577
0.39387843 -0.11601984 0.68612278
0.4099797 -0.11110421 0.69037277
0.47645015 -0.10517962 0.74198705
0.44117516 -0.067339271 0.61742103
-0.071233235 -0.13269944 0.26778084
-0.074068554 -0.22457136 0.48399568
-0.072867252 -0.22347386 0.4825722
-0.05255707 -0.15308882 0.33493435
-0.042662974 -0.12905601 0.28746232
-0.034678925 -0.1284366 0.2939131
0.15691115 -0.26212162 0.80286062
0.1838828 -0.2661064 0.83914113
0.17874467 -0.25641251 0.81092864
0.19105132 -0.25231588 0.81338066
0.2284299 -0.24973541 0.84434253
0.24857369 -0.25000274 0.86498088
0.25656042 -0.24791993 0.86794537
0.26116312 -0.2450939 0.86577809
0.30813953 -0.22506362 0.86466748
0.31172571 -0.21985644 0.85581404
0.32228559 -0.21385525 0.85199171
0.34745842 -0.22231284 0.8971495
0.35269988 -0.20413063 0.85900593
0.39447966 -0.19651823 0.88234073
0.40200746 -0.18467551 0.86158097
0.43206695 -0.1800147 0.88031566
0.44668275 -0.16492574 0.85885483
0.47633159 -0.16214986 0.88167554
0.46626595 -0.14999364 0.84269965
0.42109391 -0.13227502 0.75560504
0.43823808 -0.13650198 0.78270513
0.42936119 -0.129426 0.75702167
0.46467796 -0.099552773 0.72086722
0.44206828 -0.072031155 0.63280463
0.43467045 -0.0679956 0.61583805
0.41112369 -0.059684619 0.57264411
-0.070826694 -0.13186243 0.2677584
-0.071461774 -0.13513851 0.27497783
-0.071978293 -0.14300154 0.29331234
-0.052601282 -0.15484419 0.34104148
-0.04186007 -0.12960218 0.2912496
-0.035852529 -0.13103379 0.30067724
-0.034318656 -0.12818772 0.29538512
0.14956343 -0.2599408 0.79475713
0.15223499 -0.26083252 0.7995612
0.15462148 -0.26125604 0.80295819
0.18235804 -0.26038989 0.82856405
0.18655224 -0.25150436 0.81144911
0.22480884 -0.26042768 0.87102246
0.22671668 -0.24705149 0.84086025
0.29358968 -0.22333506 0.85074693
0.3094095 -0.22283903 0.86534661
0.34126478 -0.21183322 0.87075561
0.35345456 -0.20331001 0.86248887
0.3531864 -0.20148563 0.85784757
0.3514713 -0.19888549 0.84990263
0.39398393 -0.18271478 0.85356611
0.4038696 -0.18124372 0.8599059
0.41159493 -0.18315597 0.87220007
0.41936961 -0.18208793 0.87739915
0.4270902 -0.1809504 0.88237786
0.43225899 -0.1816331 0.88917309
0.4093065 -0.15751965 0.80845869
0.46846288 -0.16070072 0.87512499
0.42454073 -0.1310339 0.76016933
0.42454058 -0.12995525 0.75758332
0.44122735 -0.10565673 0.71598679
0.46209738 -0.099565767 0.7222144
0.43871972 -0.074724339 0.63933051
0.42769527 -0.069959365 0.61690462
0.45322686 -0.073532753 0.65095264
0.44515964 -0.071461253 0.63793522
0.44827271 -0.069111496 0.63540918
0.44912854 -0.068540134 0.63489354
0.42895636 -0.06400533 0.60388952
-0.051913518 -0.15650332 0.34771806
-0.042582963 -0.12831523 0.28912741
-0.03817445 -0.12215058 0.27868962
-0.036774464 -0.13093871 0.30127874
-0.035927795 -0.12888466 0.29717702
0.22869608 -0.25833979 0.87472278
0.2189687 -0.23825695 0.8165518
0.22866113 -0.24561736 0.84401882
0.26341119 -0.2252958 0.82989359
0.27390665 -0.21359342 0.81221253
0.29017803 -0.2216932 0.84806198
0.3010253 -0.22558275 0.86832094
0.34477168 -0.21449098 0.88546991
0.36341193 -0.22193034 0.92210448
0.37030506 -0.20620488 0.89111096
0.38245672 -0.19596121 0.87860852
0.38837221 -0.18939111 0.86870492
0.39650473 -0.1870655 0.87125766
0.41908202 -0.18061826 0.87836599
0.42026553 -0.1739267 0.86342233
0.41020808 -0.12649333 0.73898822
0.42614406 -0.12288836 0.74628556
0.4427622 -0.11336098 0.73999006
0.42370677 -0.103866 0.69798458
0.47956851 -0.090586744 0.72201496
0.42972121 -0.074249156 0.6326232
0.45597893 -0.071405977 0.65211189
-0.071257867 -0.20119588 0.43858287
-0.074632093 -0.21932802 0.47913423
-0.040373273 -0.12752357 0.29113904
-0.033445317 -0.12603493 0.29451716
0.1396478 -0.25954306 0.79271466
0.1440458 -0.25997013 0.79818535
0.17424019 -0.26309091 0.8362
0.18817846 -0.2604875 0.8439455
0.19798636 -0.2554622 0.84165448
0.21476175 -0.23545486 0.810072
0.23540001 -0.24402091 0.85165018
0.23759121 -0.24373515 0.85316706
0.28909674 -0.23193333 0.87650013
0.29587886 -0.22271869 0.86100209
0.35203671 -0.21213353 0.89197606
0.36100423 -0.21554065 0.90927893
0.36589348 -0.21473062 0.91224605
0.36445475 -0.19516951 0.86337668
0.38414401 -0.19230129 0.87627995
0.37938529 -0.17936783 0.8401286
0.37416291 -0.17265871 0.81859857
0.43064687 -0.15261756 0.82697886
0.48726046 -0.15244997 0.88366568
0.41688094 -0.119032 0.73168117
0.40457529 -0.10332909 0.68120581
0.41559881 -0.1025148 0.69034892
0.45184833 -0.10391878 0.73030895
0.47012576 -0.10250574 0.74531591
0.45685464 -0.071894556 0.65772718
0.43455541 -0.063443691 0.61475319
-0.071455888 -0.13164756 0.27140298
-0.070939504 -0.13165525 0.27194554
-0.06495861 -0.12783684 0.2687006
-0.077873453 -0.21495415 0.46797684
-0.070026815 -0.21300702 0.47118485
-0.066312306 -0.2086442 0.46431491
0.15127759 -0.25759524 0.8042298
0.18476008 -0.24696513 0.81225932
0.26666534 -0.22579981 0.84369701
0.30188295 -0.20682672 0.8331477
0.34320089 -0.19231895 0.83966851
0.38037995 -0.18151951 0.85103321
0.40719184 -0.1687527 0.84709197
0.44000679 -0.13418765 0.79609841
0.390264 -0.11809374 0.70643818
0.39488548 -0.11452524 0.70242423
0.44561011 -0.12171544 0.77137446
0.41716215 -0.10725126 0.70727533
0.42423448 -0.10077532 0.69865835
0.44623804 -0.099605031 0.71811217
0.45226178 -0.073721647 0.66112202
0.45718732 -0.070821941 0.65904635
0.46199867 -0.070852622 0.66399902
0.40166348 -0.054376818 0.56266981
-0.064495288 -0.12681596 0.26828215
-0.069275707 -0.21124671 0.47039282
-0.066573933 -0.20726761 0.46339157
-0.038187798 -0.12468953 0.28987977
0.14215864 -0.26609287 0.82032478
0.15768287 -0.27009487 0.84595668
0.17050949 -0.27575457 0.87290305
0.17637254 -0.27417743 0.87501234
0.19584018 -0.23553351 0.80011612
0.22266787 -0.24663039 0.85466081
0.20800087 -0.22450508 0.78547317
0.24533066 -0.22822757 0.83264244
0.24925688 -0.218842 0.81363493
0.27795273 -0.22528955 0.85868526
0.29249397 -0.21415134 0.8461991
0.29884267 -0.20912962 0.84035879
0.2963098 -0.19853568 0.81180626
0.32464308 -0.2040077 0.85409582
0.33048457 -0.19057126 0.82710946
0.38349259 -0.18780015 0.87433791
0.40543368 -0.17231934 0.85874671
0.46280447 -0.1519707 0.8673299
0.48408404 -0.1498799 0.88389039
0.44710556 -0.13503268 0.809807
0.42378488 -0.10777313 0.7192136
0.45372808 -0.093836464 0.71556342
0.46358582 -0.083139315 0.6993857
0.44591451 -0.073020808 0.65657073
0.40093049 -0.049142487 0.55218893
-0.063962892 -0.12557732 0.26739183
-0.035666306 -0.1270688 0.30005959
0.14313716 -0.2671853 0.82869476
0.17043824 -0.27161229 0.86757964
0.17071892 -0.2416299 0.79394817
0.18395472 -0.24441253 0.8143689
0.1959295 -0.25329441 0.848535
0.21295318 -0.24829189 0.85364276
0.27612406 -0.21090005 0.82617652
0.35647577 -0.20727764 0.8995685
0.34367555 -0.19337292 0.85217327
0.37893936 -0.20553961 0.91829801
0.38344738 -0.20273751 0.91600811
0.37958598 -0.18007463 0.8561784
0.40535584 -0.18885049 0.90421683
0.39791864 -0.16928115 0.84835041
0.44278064 -0.16606645 0.88638735
0.43170917 -0.15280873 0.84235817
0.45585787 -0.15211406 0.86538672
0.48203912 -0.14783004 0.8816483
0.48783544 -0.14834046 0.88884497
0.4027192 -0.11346705 0.71566325
0.43635446 -0.11269621 0.74822313
0.42044693 -0.1048088 0.71247965
0.43745631 -0.095266849 0.7063815
-0.072526649 -0.13116597 0.27404886
-0.064258508 -0.12530138 0.26802391
-0.078534171 -0.2038886 0.44817621
-0.053697251 -0.15892659 0.36227497
-0.036349401 -0.12483058 0.29560253
0.17110661 -0.26857349 0.86569017
0.19186042 -0.24490826 0.82838881
0.21751864 -0.23458031 0.82920873
0.23581588 -0.23108666 0.83939242
0.2507489 -0.23541676 0.86550987
0.25144309 -0.23375148 0.86209571
0.26925576 -0.2067074 0.81338704
0.30459312 -0.21634366 0.87367749
0.34525889 -0.20315316 0.88285774
0.34995863 -0.20407201 0.88997662
0.38395581 -0.20508246 0.927499
0.3606205 -0.18341458 0.84973812
0.46442613 -0.16695924 0.91585666
0.38122171 -0.10446513 0.67520308
0.42794958 -0.11423076 0.74754649
0.42270851 -0.10512409 0.71956861
0.42592722 -0.10498682 0.72254324
0.40938038 -0.097319409 0.68648875
0.41410989 -0.096683383 0.68978322
0.46405685 -0.092660688 0.73125422
0.46943903 -0.085119717 0.71809971
0.47010431 -0.075523399 0.69499093
0.46528524 -0.066466972 0.66757226
0.47416049 -0.044765778 0.62290573
-0.078587949 -0.19881369 0.43813598
-0.075653546 -0.21127139 0.47224057
-0.074525461 -0.21043336 0.47131884
-0.068433627 -0.20395201 0.46146479
-0.06722942 -0.20261352 0.4593738
-0.045287661 -0.12573749 0.29038882
-0.044694345 -0.12574676 0.29102662
-0.038612049 -0.12569606 0.297198
0.14187136 -0.25046533 0.79523104
0.14270711 -0.24536481 0.78337699
0.17056489 -0.26385903 0.85834354
0.21651334 -0.2302639 0.82214761
0.23431218 -0.22871289 0.83671123
0.30320022 -0.21614537 0.876706
0.29986697 -0.20451607 0.84425485
0.31513882 -0.20887792 0.87094617
0.38324267 -0.20335066 0.92768633
0.37144804 -0.18906681 0.87985283
0.38305518 -0.18520066 0.88223094
0.40314606 -0.17603238 0.88017273
0.44749418 -0.16088809 0.88833076
0.43400839 -0.15478684 0.85915118
0.43300998 -0.14805712 0.84133542
0.44153136 -0.1459187 0.84482688
0.48389351 -0.14429246 0.88463843
0.43482807 -0.12531151 0.78649741
0.41887292 -0.11864448 0.75334978
0.41711864 -0.11712275 0.74773842
0.43048558 -0.10873774 0.74067038
0.41015354 -0.09636043 0.68875051
0.41173416 -0.095855117 0.68912721
0.44606346 -0.066039473 0.6503247
0.4161734 -0.049950305 0.57925129
0.43028998 -0.051126786 0.59680319
0.41706347 -0.046469424 0.57149225
0.47743371 -0.049719919 0.64211315
0.45766544 -0.045657311 0.61151165
-0.092770852 -0.17383435 0.36334714
-0.062491715 -0.1535093 0.34389409
-0.066014692 -0.1986509 0.45344478
-0.043564074 -0.12788007 0.2993198
-0.038933106 -0.12579079 0.29890075
0.16602451 -0.25996435 0.84880191
0.1589848 -0.24695726 0.80885011
0.25941941 -0.21268985 0.82746857
0.26167378 -0.20657139 0.81446964
0.30938587 -0.20954435 0.87160015
0.31697363 -0.1980603 0.85069644
0.34899709 -0.20987824 0.9136768
0.36759451 -0.1796491 0.85722166
0.36929789 -0.17893615 0.85720718
0.3995485 -0.18368122 0.90060222
0.40831482 -0.18605027 0.91567093
0.40575376 -0.18335466 0.90624315
0.40222114 -0.17875177 0.89102161
0.39540097 -0.16431762 0.84771913
0.40912998 -0.16708151 0.86894405
0.42156139 -0.16920002 0.88720024
0.43337762 -0.15582058 0.86594522
0.42985994 -0.15069249 0.84942144
0.44184041 -0.14715418 0.85302019
0.41002467 -0.095183343 0.68954951
0.43246314 -0.092377685 0.70587355
0.44465187 -0.092360631 0.71852034
0.46625489 -0.079649448 0.70913064
0.48608765 -0.076521702 0.72193438
0.44008392 -0.066869251 0.64983028
0.4439576 -0.06675493 0.65357643
0.44919118 -0.066117682 0.65742731
0.46005082 -0.057819806 0.64792132
0.48738536 -0.039544478 0.63054359
-0.093107939 -0.17324826 0.3637282
-0.083646715 -0.20338839 0.44966352
-0.038515575 -0.12496316 0.29906902
-0.038046233 -0.14396475 0.3474938
0.14318185 -0.25137168 0.80814135
0.1477274 -0.25182766 0.81404978
0.15339674 -0.25066787 0.81705862
0.1718895 -0.25178394 0.8392309
0.18750139 -0.24547948 0.83966935
0.19260484 -0.24326919 0.83943594
0.1945347 -0.22496602 0.79528433
0.22494286 -0.2226346 0.82123286
0.26308993 -0.21855785 0.85087943
0.32123402 -0.19421342 0.85033071
0.3840822 -0.15977292 0.82923788
0.41123354 -0.16516642 0.87126422
0.42466342 -0.16761099 0.89148873
0.42486498 -0.15937604 0.87092608
0.42820984 -0.15524937 0.86401761
0.43403947 -0.14822732 0.85240591
0.44890609 -0.14187536 0.85194439
0.43005872 -0.10522072 0.73975009
0.42968011 -0.10417427 0.7367143
0.42418325 -0.10096888 0.72287482
0.42387128 -0.099055126 0.71772009
0.41892862 -0.096990213 0.70733756
0.4141953 -0.093247242 0.69294053
0.47341865 -0.076434463 0.7125212
0.47810909 -0.076406986 0.71736151
0.43578979 -0.065802634 0.64631283
0.462679 -0.060516547 0.66112453
0.45648855 -0.056914899 0.64555919
0.44993001 -0.051442411 0.62488937
0.46410182 -0.052502971 0.64239877
0.47410971 -0.041489452 0.62509191
0.48048073 -0.037836716 0.62254673
-0.093659714 -0.17319578 0.3652406
-0.093368776 -0.18136781 0.38628161
-0.096506946 -0.19159162 0.40891963
-0.08115615 -0.19577587 0.43569255
-0.044106089 -0.13094135 0.31018239
0.14344145 -0.25119776 0.81269664
0.15781359 -0.25975281 0.84952956
0.16780907 -0.24563035 0.82421637
0.18272579 -0.22589304 0.78983635
0.27845696 -0.20324558 0.83312732
0.29820246 -0.18779229 0.81469887
0.35606563 -0.20584804 0.9214108
0.34186509 -0.18944159 0.86483729
0.38183638 -0.19513975 0.92136353
0.35818285 -0.17413728 0.84317958
0.37550673 -0.17470479 0.86285222
0.38849124 -0.17013349 0.86491954
0.44288582 -0.16888121 0.91899079
0.4194414 -0.14948441 0.8451001
0.4221015 -0.14913772 0.84702033
0.42705205 -0.14957923 0.85335118
0.44559205 -0.13588208 0.83811027
0.46803054 -0.1354055 0.86051631
0.477193 -0.13684347 0.8738088
0.47979629 -0.085469417 0.74619716
0.4454864 -0.076032683 0.68614316
0.48844513 -0.040486999 0.64116567
0.49601451 -0.040547282 0.64928538
-0.076771349 -0.18716705 0.4210164
-0.042953514 -0.12954982 0.30975604
0.15303272 -0.24571319 0.81362373
0.18001406 -0.25486276 0.86552703
0.18568316 -0.2309792 0.81057215
0.19327456 -0.22432415 0.8016209
0.21843518 -0.23565844 0.85717374
0.22419074 -0.22224644 0.82903516
0.22977239 -0.22285227 0.83648789
0.29637834 -0.20492013 0.8612079
0.34212989 -0.17113805 0.82340717
0.35686842 -0.17225191 0.84184659
0.42388275 -0.15493932 0.86857945
0.43968764 -0.15521458 0.88600737
0.46138304 -0.14173153 0.87455571
0.43443444 -0.12113424 0.79347026
0.44916892 -0.11551528 0.7947222
0.42064077 -0.10427794 0.73585343
0.41430846 -0.090092346 0.69294852
0.43735185 -0.07500764 0.67883527
0.47901559 -0.074100204 0.72060984
0.46257025 -0.069166936 0.69061595
0.40550962 -0.043490157 0.5647012
0.48539561 -0.03605618 0.63026744
0.48516405 -0.03484422 0.6269291
-0.040590081 -0.12413374 0.30027941
0.14325212 -0.24973276 0.81833601
0.15112634 -0.25182712 0.83209157
0.17915292 -0.24130118 0.83489209
0.19597763 -0.22634207 0.81439221
0.2488627 -0.20820646 0.82410932
0.2590487 -0.21213478 0.8450321
0.29069099 -0.20370139 0.85705245
0.33217645 -0.20215622 0.89722914
0.34064174 -0.19989206 0.9004246
0.35412255 -0.17118117 0.84106416
0.37186757 -0.17493585 0.8695845
0.39838934 -0.18391648 0.92086077
0.37395275 -0.16991453 0.85891271
0.38876051 -0.164727 0.86135244
0.37757266 -0.15870184 0.8339799
0.41009313 -0.15790223 0.86653131
0.45127785 -0.15511154 0.90319115
0.45580789 -0.15530138 0.90849876
0.46253002 -0.1431611 0.8844853
0.45031083 -0.13104507 0.84037912
0.43702641 -0.11523288 0.78565133
0.42457017 -0.095622264 0.72205323
0.4534142 -0.06658601 0.67820466
0.44046685 -0.061745539 0.65200114
0.45506561 -0.044954166 0.6244294
-0.078348033 -0.13692099 0.2947661
-0.084636658 -0.15935592 0.34597248
-0.081844233 -0.20077455 0.45591769
-0.079269074 -0.19482365 0.4433057
-0.074745834 -0.20080121 0.46358183
-0.073648736 -0.20003019 0.46276435
-0.07047122 -0.19438249 0.45158005
-0.067815535 -0.18693531 0.43519029
-0.047611229 -0.12723362 0.30263785
-0.039849892 -0.13035177 0.31899419
0.13072646 -0.24596789 0.80006975
0.13351333 -0.247131 0.80605495
0.2142017 -0.23196176 0.85321754
0.22345191 -0.21736403 0.82541883
0.22423381 -0.21151717 0.81115699
0.23497786 -0.2165989 0.83577555
0.24939385 -0.22455491 0.87174565
0.26741871 -0.21336809 0.86214322
0.26410404 -0.1972896 0.81707662
0.38119641 -0.15083116 0.82239133
0.39895329 -0.15502402 0.85221827
0.41742453 -0.15253486 0.86555433
0.43069991 -0.15327346 0.88166595
0.41830716 -0.10032847 0.73168355
0.42642885 -0.10038841 0.74052829
0.41245633 -0.089083105 0.6963836
0.43727633 -0.062283795 0.65373546
0.4713254 -0.052188002 0.66409636
-0.073645212 -0.19770434 0.45958084
-0.068506353 -0.18405603 0.42965579
-0.065074705 -0.17329228 0.40538725
0.13448353 -0.24478249 0.80581272
0.14875728 -0.25029793 0.83549803
0.15105873 -0.24720675 0.8299439
0.15239781 -0.24596635 0.82816291
0.16491161 -0.24481668 0.83864057
0.1806809 -0.23597884 0.83264905
0.21472381 -0.22906835 0.85132653
0.24373619 -0.21652034 0.84994614
0.26075932 -0.20328093 0.83386999
0.30510652 -0.20326854 0.88155329
0.30564573 -0.19273892 0.8547802
0.38312361 -0.17895547 0.90233761
0.40408409 -0.15029332 0.85043406
0.44594327 -0.15311645 0.9028061
0.46349293 -0.15495247 0.92645836
0.43188643 -0.13580452 0.84271067
0.45549843 -0.14191736 0.88399535
0.45118397 -0.13688026 0.86626816
0.44324413 -0.13328803 0.8483938
0.44429791 -0.13006376 0.84115195
0.42701384 -0.11314128 0.77859545
0.4210456 -0.10751849 0.75756764
0.41851977 -0.10393163 0.74553227
0.42459118 -0.087916426 0.71046174
0.46888456 -0.041655071 0.63794607
0.48821267 -0.032347903 0.63456506
-0.062062938 -0.14513123 0.337578
-0.044023126 -0.12396928 0.30179581
0.13659483 -0.24423999 0.81151772
0.14446832 -0.25320354 0.84346008
0.17353255 -0.23762126 0.83418703
0.18906921 -0.22374131 0.81472605
0.20803748 -0.22630934 0.84196043
0.26224962 -0.19752264 0.82539111
0.30878538 -0.20065331 0.88392323
0.35795051 -0.17521247 0.87063634
0.38237754 -0.17264344 0.89035261
0.40014938 -0.16680925 0.89433521
0.41289973 -0.15216067 0.86985099
0.42097092 -0.14973275 0.8722387
0.43144011 -0.14679404 0.87588716
0.44762501 -0.14958048 0.90068066
0.41300729 -0.13447915 0.82376122
0.43782023 -0.13750654 0.85852003
0.42857397 -0.1175574 0.79638374
0.41380444 -0.10640123 0.75124979
0.42882109 -0.094756432 0.73706686
0.41224569 -0.037402097 0.56925219
-0.07708697 -0.13580091 0.29882967
-0.071348086 -0.12504537 0.27679846
-0.064953342 -0.14920229 0.34726387
-0.072558329 -0.18573149 0.43502194
-0.063468806 -0.15397027 0.36141354
-0.063565038 -0.16001354 0.37719664
-0.062836245 -0.16313738 0.38620168
-0.039352536 -0.12905976 0.32216626
0.17542164 -0.22544424 0.80924922
0.18083018 -0.22647327 0.81783944
0.20620859 -0.2235271 0.83770841
0.21631423 -0.21015693 0.81355494
0.2375692 -0.20512915 0.82346421
0.25638902 -0.19788238 0.82489109
0.27063262 -0.19856207 0.8421756
0.28594947 -0.19225697 0.84226644
0.2996971 -0.19557802 0.86595589
0.40345502 -0.17275025 0.918841
0.40232912 -0.16631341 0.90069413
0.41073519 -0.15678716 0.88479668
0.41091636 -0.15007563 0.8673498
0.41083813 -0.14101095 0.84343404
0.42255992 -0.12222424 0.80679959
0.45842925 -0.11984392 0.83957058
0.41237885 -0.10381924 0.74733579
0.4202145 -0.1018763 0.75075346
0.42472762 -0.096298575 0.74100095
0.4249545 -0.094498932 0.7365163
-0.083382793 -0.19479185 0.44987264
-0.065088928 -0.14803724 0.34623328
-0.062913716 -0.1500739 0.35400012
-0.063102722 -0.17213611 0.4121438
-0.042772822 -0.12763104 0.31668225
0.15236109 -0.24076389 0.82942724
0.18153709 -0.22384696 0.81661141
0.20112868 -0.21988735 0.82757741
0.22150321 -0.22786531 0.87097287
0.22785714 -0.20226198 0.81020945
0.26902699 -0.1925997 0.82970512
0.27304322 -0.19349071 0.83645672
0.277116 -0.18718833 0.8242448
0.29534602 -0.18639381 0.84209192
0.38393643 -0.18155259 0.92622912
0.36792076 -0.17260912 0.88505
0.43616518 -0.13423267 0.8582285
0.42998025 -0.11532598 0.80145538
0.4309307 -0.110301 0.78920537
0.4287138 -0.10072999 0.76146597
0.42699701 -0.098405413 0.75343937
0.44054207 -0.041734308 0.6183759
0.41499555 -0.035667781 0.57437623
0.46245179 -0.029474037 0.60992491
0.46353382 -0.02842016 0.60832113
-0.070941783 -0.12734994 0.28695065
-0.068072863 -0.1453498 0.33800364
-0.061445866 -0.16625378 0.40091985
-0.042900749 -0.12625499 0.31489655
0.14330402 -0.24619493 0.83896434
0.14393617 -0.24057452 0.82470465
0.13592206 -0.22265106 0.76819253
0.14467776 -0.22628091 0.78748685
0.18181571 -0.2425189 0.8715657
0.19135144 -0.22358568 0.83168018
0.19372888 -0.2236055 0.83434981
0.19792166 -0.21812043 0.82436866
0.20084822 -0.21868004 0.82907838
0.22262339 -0.19892991 0.80048883
0.2405691 -0.20965631 0.84878105
0.23613334 -0.20188886 0.82323027
0.26951048 -0.19364972 0.83803934
0.31833732 -0.1918236 0.88691473
0.32444772 -0.19358315 0.89832097
0.35055146 -0.19042088 0.91863394
0.35740492 -0.16353509 0.85463619
0.41620162 -0.16314952 0.91831672
0.41012439 -0.15241666 0.88306975
0.41149738 -0.11432821 0.78323138
0.43652576 -0.098374829 0.76832527
0.40430781 -0.034214906 0.56214613
0.46276209 -0.02955896 0.6140871
0.46181184 -0.028919829 0.61134058
-0.077581361 -0.1307779 0.29063603
-0.072321266 -0.12557845 0.28253844
-0.08451438 -0.17931502 0.41290396
-0.082118407 -0.18675737 0.43547955
-0.061774414 -0.15903163 0.3837713
-0.06104859 -0.15915506 0.38490516
-0.044679996 -0.12344801 0.30742937
0.14513481 -0.22049281 0.77732515
0.16230249 -0.23467562 0.83429593
0.17815895 -0.22352894 0.82200527
0.18652496 -0.2225503 0.82864517
0.20248459 -0.21939431 0.83786064
0.22373964 -0.22076976 0.86506903
0.21069354 -0.20434254 0.8066504
0.23805164 -0.20444366 0.83720249
0.25451276 -0.18951046 0.81544369
0.26645234 -0.18860874 0.82624477
0.27052498 -0.18593448 0.82359314
0.29373187 -0.18827023 0.85553217
0.31482285 -0.19028784 0.88427812
0.35268483 -0.17212813 0.8775683
0.36873356 -0.1599084 0.86261779
0.44754663 -0.13863294 0.89289248
0.43207106 -0.13023219 0.85327405
0.44576079 -0.11464838 0.82670629
0.43091354 -0.10163986 0.77544707
0.43299443 -0.10114512 0.77642626
0.42109761 -0.034772217 0.58556825
0.4672015 -0.03714158 0.64294034
0.4920164 -0.038035952 0.67280048
0.47031191 -0.033739265 0.63727468
0.47271273 -0.026880912 0.62157106
-0.072295055 -0.15153697 0.35433
-0.064091727 -0.13756111 0.32581747
-0.059710834 -0.12871546 0.30686745
-0.048649818 -0.1260104 0.31189457
-0.043380193 -0.12494314 0.31488648
0.17204052 -0.23179507 0.84251207
0.23251653 -0.19691335 0.81587863
0.30403918 -0.18976629 0.87624818
0.3196736 -0.18655476 0.88500184
0.33739388 -0.18594402 0.90308356
0.38725752 -0.16489309 0.90189004
