# .PCD v0.7 - Point Cloud Data file format
VERSION 0.7
FIELDS x y z
SIZE 4 4 4
TYPE F F F
COUNT 1 1 1
WIDTH 1390
HEIGHT 1
VIEWPOINT 0 0 0 1 0 0 0
POINTS 1390
DATA ascii
0.36453587 -0.13717967 0.76767075
0.36815196 -0.1106503 0.61921012
0.35558572 -0.10316479 0.5773201
0.3700043 -0.10551727 0.59048462
-0.079368368 -0.038876951 0.2199527
-0.092509985 -0.046983808 0.26581883
-0.091921762 -0.046973646 0.26576066
-0.08976908 -0.048575073 0.27482092
-0.091694102 -0.050950199 0.28825891
-0.047239393 -0.047741145 0.2701031
-0.048472762 -0.049593687 0.2805841
-0.047893584 -0.049614906 0.28070438
0.18287402 -0.17549783 0.99290717
0.1849013 -0.16957223 0.95938146
0.18661609 -0.16743118 0.94726837
0.20180745 -0.16999489 0.96177304
0.23579739 -0.15213615 0.86073482
0.25350988 -0.15861416 0.89738524
0.25920808 -0.15741545 0.89060318
0.31022096 -0.15345973 0.86822331
0.34650826 -0.16358215 0.92549241
0.30593786 -0.14042127 0.79445612
0.4071278 -0.16819561 0.95159352
0.41402346 -0.16935229 0.95813763
0.35681039 -0.14381582 0.81366074
0.35942006 -0.13623559 0.77077448
0.36455327 -0.13755089 0.77821577
0.3673386 -0.1379723 0.78059971
0.43604785 -0.1546483 0.87494743
0.46385896 -0.1617372 0.91505396
0.45261395 -0.15455794 0.87443626
0.44811022 -0.1511476 0.855142
0.34724259 -0.10748053 0.60808778
0.36581594 -0.11074239 0.62654269
-0.082124785 -0.037771046 0.2160728
-0.099535167 -0.046037376 0.26336098
-0.090283543 -0.048001945 0.27459919
0.21750548 -0.1741088 0.99600494
0.23951229 -0.1528331 0.87429559
0.2833969 -0.16189009 0.9261061
0.28757715 -0.16090649 0.92047894
0.31008345 -0.15354139 0.8783468
0.33274454 -0.15021151 0.85929763
0.3609719 -0.15524238 0.88807738
0.3924883 -0.15569705 0.89067876
0.39041811 -0.15192825 0.86911881
0.35926944 -0.10916263 0.62447441
0.36680016 -0.10862595 0.62140429
0.3617233 -0.10301918 0.5893302
-0.10209487 -0.045412064 0.26270545
-0.080397233 -0.037623167 0.21764708
-0.079289034 -0.037983656 0.21973252
-0.09231095 -0.044752002 0.25888693
-0.11037619 -0.062066883 0.35905266
0.19659758 -0.17633212 1.0200685
0.19367671 -0.17180699 0.99389136
0.19213387 -0.16858929 0.97527683
0.22605494 -0.15471232 0.89499938
0.23051932 -0.15260226 0.88279355
0.23423447 -0.14896506 0.86175311
0.25491869 -0.15252477 0.88234532
0.29658759 -0.16080189 0.93022788
0.30044878 -0.15968394 0.92376029
0.28948829 -0.14709234 0.85091889
0.30863887 -0.14931816 0.86379564
0.30457729 -0.14224786 0.82289374
0.33546224 -0.15313506 0.88587511
0.33463502 -0.14775372 0.85474455
0.33695805 -0.14797157 0.8560046
0.34717238 -0.15081912 0.87247837
0.38322616 -0.1571939 0.909356
0.42603856 -0.15939522 0.92209041
0.36169893 -0.13408321 0.77566159
0.37468129 -0.13701177 0.79260361
0.38237047 -0.13795227 0.79804456
0.42343158 -0.14439291 0.83530295
0.43230313 -0.13975763 0.80848873
0.35536027 -0.10598636 0.61312377
0.36029571 -0.10628265 0.61483729
-0.083804756 -0.038553566 0.22556674
-0.095954016 -0.045449942 0.26591611
-0.092421308 -0.045112729 0.26394296
-0.022240773 -0.028308332 0.1656245
0.19490394 -0.16728127 0.97871935
0.17491496 -0.14853108 0.86901677
0.23818699 -0.17133075 1.0024112
0.22073117 -0.15596861 0.91253173
0.23788822 -0.1569941 0.91853154
0.2442826 -0.15859634 0.92790616
0.24357921 -0.15686619 0.9177829
0.2808958 -0.16867286 0.98686063
0.29882896 -0.15912813 0.93101656
0.29821604 -0.1577512 0.92296112
0.27536851 -0.14100152 0.82496369
0.34106356 -0.13903099 0.813434
0.39953083 -0.15961015 0.93383682
0.39689928 -0.15101463 0.88354671
0.39015192 -0.13980001 0.81793368
0.41482913 -0.13754839 0.80476034
0.40988553 -0.1353479 0.79188645
0.44452125 -0.14381588 0.84142888
0.44276565 -0.14267051 0.8347286
0.35541487 -0.10481036 0.61321795
-0.098211482 -0.043909401 0.25985849
-0.097192779 -0.044718444 0.26464641
-0.090551242 -0.045072705 0.2667433
-0.046742901 -0.04516077 0.26726437
0.18721148 -0.15389591 0.91076624
0.1974093 -0.15579909 0.92202866
0.21470851 -0.16613483 0.98319685
0.23909628 -0.17157161 1.015371
0.2501961 -0.16190237 0.95814741
0.28106165 -0.16685247 0.98744309
0.27699667 -0.15295392 0.90519083
0.29264551 -0.1550954 0.91786397
0.3021698 -0.14821965 0.87717307
0.30927455 -0.15076923 0.89226139
0.31360114 -0.14484036 0.85717356
0.35015285 -0.15030676 0.88952482
0.36831796 -0.15073824 0.89207757
0.34054175 -0.13585418 0.80399263
0.4169876 -0.15392363 0.91092908
0.42039001 -0.15445828 0.91409361
0.39054757 -0.13960093 0.82616723
0.39566982 -0.14016443 0.82950151
0.38380104 -0.12957335 0.76682341
0.39448124 -0.13261282 0.78481066
0.35749507 -0.1042245 0.61680734
-0.09973599 -0.043830037 0.26240838
-0.11284496 -0.059253991 0.35475099
0.19495754 -0.1747753 1.0463716
0.20012419 -0.17538327 1.0500113
0.19318977 -0.16379565 0.98063648
0.21344253 -0.14609629 0.8746711
0.27832335 -0.14982516 0.89699614
0.30132824 -0.15577108 0.93259299
0.3516497 -0.13867116 0.83021796
0.39844888 -0.15176541 0.90861213
0.38484132 -0.14587152 0.87332571
0.38145119 -0.13726294 0.821787
0.37387413 -0.13330895 0.79811323
0.40867972 -0.14183629 0.84916651
0.38216645 -0.12975335 0.77682674
0.37888551 -0.12753123 0.76352322
0.37987506 -0.12731594 0.76223457
0.3781175 -0.12618589 0.75546777
0.41711515 -0.13134748 0.78637064
0.37195051 -0.11436051 0.68467057
0.43036485 -0.10374802 0.62113464
-0.045894697 -0.0438568 0.265661
0.23695733 -0.17077386 1.0344561
0.27516389 -0.16581774 1.0044347
0.3073681 -0.154993 0.93886507
0.3113727 -0.15599394 0.94492853
0.31178015 -0.15129161 0.91644347
0.37031356 -0.15530276 0.9407407
0.35206079 -0.14150155 0.85713971
0.38788921 -0.14967108 0.90662634
0.39312255 -0.14871866 0.90085661
0.37845415 -0.1352219 0.81910217
0.40992129 -0.14061111 0.8517462
0.36705261 -0.12263846 0.7428776
0.39602911 -0.12736148 0.77148759
0.40146202 -0.12494689 0.75686038
0.40326291 -0.097283363 0.58929026
0.43335956 -0.10168546 0.61595619
-0.11084785 -0.057234824 0.35082996
0.18748949 -0.16048515 0.98371994
0.22512509 -0.17153966 1.0514792
0.21375842 -0.16126871 0.9885217
0.25272122 -0.16186559 0.99218094
0.26644313 -0.1599192 0.98024952
0.2883265 -0.15479535 0.94884264
0.30582631 -0.1534009 0.94029415
0.34121844 -0.16260487 0.99671185
0.34622884 -0.16295779 0.99887502
0.36196542 -0.16235554 0.99518263
0.37353146 -0.1618371 0.99200571
0.35634083 -0.15180409 0.93050635
0.37072617 -0.14136368 0.86651099
0.39436418 -0.1467126 0.89929736
0.37523127 -0.12949628 0.79376686
0.398862 -0.1340158 0.82147062
0.36609721 -0.11782056 0.72219956
0.38936669 -0.12171692 0.74608314
0.38782775 -0.12074137 0.74010313
0.38220698 -0.11850822 0.72641385
0.38400447 -0.1185838 0.72687733
0.31744355 -0.093852341 0.57528293
-0.11070757 -0.056481123 0.3503859
-0.04298149 -0.041651368 0.25838828
0.21501586 -0.16028404 0.99433649
0.20875446 -0.13670015 0.84803188
0.2264149 -0.14450103 0.89642489
0.26109397 -0.15858185 0.98377669
0.2634185 -0.15871543 0.98460615
0.27134997 -0.15028733 0.93232119
0.27485079 -0.15002292 0.93068039
0.27792126 -0.15060884 0.93431532
0.30242693 -0.15604043 0.96801031
0.33851796 -0.16243786 1.0076982
0.36970615 -0.15827078 0.98184693
0.36623216 -0.15415841 0.95633543
0.36642939 -0.11002725 0.6825639
0.35695028 -0.1019066 0.63218629
0.40619689 -0.096893489 0.60108733
0.40427464 -0.095528543 0.59261966
0.39676708 -0.091462016 0.56739295
0.18568102 -0.15009916 0.94252217
0.18612842 -0.14884597 0.93465292
0.26119161 -0.15800005 0.99213493
0.26240113 -0.1468125 0.92188394
0.28705627 -0.15150565 0.95135367
0.31832811 -0.13237786 0.83124435
0.3647052 -0.14214391 0.89256871
0.35558724 -0.13170099 0.8269943
0.37832063 -0.12574464 0.78959215
0.36815542 -0.12022084 0.75490606
0.35558206 -0.11510599 0.72278893
0.3614139 -0.10894722 0.68411601
0.36238074 -0.10836202 0.68044055
0.40556759 -0.09497565 0.59638345
-0.10971279 -0.054995388 0.34960258
-0.042175397 -0.039884299 0.25354242
0.19241272 -0.14573622 0.92643654
0.26129735 -0.14773822 0.93916333
0.30249166 -0.14534807 0.92396986
0.33010152 -0.15360087 0.97643125
0.34579438 -0.139705 0.88809645
0.39529788 -0.14755535 0.9380008
0.35780549 -0.12411803 0.78901112
0.35763302 -0.12347621 0.78493106
0.37104672 -0.12632948 0.80306947
0.3664006 -0.12360424 0.78574431
0.36066717 -0.11736631 0.74609101
0.3551845 -0.11456913 0.72830904
0.36635146 -0.10908735 0.69346225
0.33536285 -0.095605254 0.60775697
0.33945531 -0.09602797 0.61044466
0.39620388 -0.092817008 0.59003222
0.40338016 -0.093310118 0.59316695
0.40160286 -0.08952266 0.56909001
-0.10859695 -0.054131836 0.34841979
-0.042375341 -0.03957808 0.25474441
0.1907585 -0.15377486 0.98977196
0.204383 -0.14399803 0.92684281
0.26479375 -0.16287959 1.0483748
0.24177313 -0.1404025 0.90369999
0.25928104 -0.14590704 0.93913043
0.29037985 -0.14951736 0.96236861
0.37399852 -0.15431482 0.9932462
0.40060019 -0.15152884 0.97531545
0.37323749 -0.13690436 0.8811847
0.37924153 -0.13501871 0.869048
0.35176009 -0.11355501 0.73089731
0.35684198 -0.11468631 0.73817813
0.3596825 -0.11408603 0.73431408
0.31847978 -0.097609699 0.62826455
0.34259814 -0.10369009 0.66740096
0.36161953 -0.10721499 0.69008911
0.34134427 -0.095736861 0.6162101
0.35819298 -0.098560989 0.63438737
0.39606345 -0.091346443 0.5879513
-0.042966142 -0.039124936 0.25501931
0.19969988 -0.15551883 1.0136825
0.25935936 -0.14873022 0.96943414
0.2845208 -0.13690889 0.89238131
0.33279991 -0.1491425 0.97212112
0.30257052 -0.1192202 0.77708566
0.38034648 -0.1450873 0.94568908
0.40072274 -0.15125245 0.98587406
0.36891866 -0.11605757 0.75647128
0.37848091 -0.11803114 0.76933515
0.40997654 -0.12730014 0.82975113
0.38569474 -0.11924475 0.7772454
0.37248468 -0.10773605 0.70223057
0.41193694 -0.093818486 0.6115154
0.42746437 -0.09523958 0.62077844
-0.044195071 -0.038750857 0.2558229
0.18560991 -0.13677841 0.90297472
0.18648115 -0.13600612 0.8978771
0.1919308 -0.13855499 0.91470277
0.20348838 -0.14396548 0.95042193
0.25634611 -0.13642031 0.90061152
0.27804664 -0.14365399 0.94836557
0.27940267 -0.14228016 0.93929565
0.28304797 -0.14310807 0.94476211
0.28299549 -0.14206797 0.93789566
0.2869525 -0.13724917 0.90608203
0.38491464 -0.15225089 1.0051204
0.40086061 -0.14783233 0.97594941
0.40004742 -0.14676857 0.9689275
0.4126249 -0.13527632 0.89305866
0.34668505 -0.10145587 0.66978514
0.35009801 -0.10203332 0.67359746
0.35943508 -0.10432553 0.68872964
0.36880815 -0.10660952 0.70380747
0.36999533 -0.10651815 0.70320499
0.36401623 -0.098027349 0.64715064
-0.10757807 -0.051967084 0.34753394
-0.10670528 -0.051903814 0.34711123
0.18383235 -0.13513482 0.90372407
0.24187782 -0.15221411 1.0179442
0.25873733 -0.15716904 1.0510796
0.2831549 -0.13369429 0.89409077
0.34204262 -0.1414513 0.94596612
0.36533862 -0.14674813 0.98138893
0.37158483 -0.12987036 0.86851776
0.35996747 -0.12395239 0.82894075
0.40271187 -0.13341784 0.89224112
0.39721566 -0.11197704 0.74885523
0.39697123 -0.1105715 0.73945534
0.37803328 -0.10487896 0.70138657
0.39521563 -0.10310423 0.6895169
0.37996775 -0.094208121 0.63002408
0.38474476 -0.092762589 0.62035692
0.25131196 -0.15199322 1.0298573
0.24246912 -0.13269794 0.89911854
0.24387094 -0.13241565 0.89720571
0.29463458 -0.13918436 0.94306862
0.30294514 -0.13929826 0.94384086
0.30261183 -0.13731617 0.93041098
0.31255227 -0.1355899 0.91871274
0.35145617 -0.14782321 1.0016037
0.37158531 -0.14731646 0.99816883
0.38771659 -0.14859295 1.0068179
0.36489695 -0.13831192 0.93715727
0.38048297 -0.12681645 0.85926712
0.39842296 -0.12966651 0.87857783
0.4011122 -0.1299293 0.88035882
0.41453564 -0.13060153 0.88491356
0.37250423 -0.11525583 0.78093612
0.37843758 -0.11553848 0.78285182
0.38863063 -0.10856974 0.73563397
0.40137881 -0.11034542 0.74766552
0.37983757 -0.10042518 0.68044889
0.42626846 -0.092220962 0.62485993
-0.044616058 -0.03715387 0.25510359
0.18873458 -0.14262331 0.97927034
0.22570819 -0.14485997 0.99462759
0.25312352 -0.14847124 1.0194231
0.28707325 -0.14800107 1.0161945
0.29716772 -0.13853151 0.95117676
0.31026664 -0.1407854 0.96665132
0.37061596 -0.14840466 1.0189666
0.37131292 -0.14043134 0.96422136
0.40376335 -0.14543933 0.99860585
0.36566412 -0.11164892 0.76659644
0.36656606 -0.1109302 0.76166165
0.34799272 -0.092205882 0.63309753
0.37075382 -0.094915152 0.65169966
0.40264004 -0.096548975 0.66291821
0.41419452 -0.098625422 0.67717588
-0.04391019 -0.036524296 0.25417376
-0.04251577 -0.036261678 0.25234616
0.2020179 -0.14577341 1.0144426
0.21816725 -0.1435594 0.99903524
0.24585113 -0.13311392 0.92634332
0.25298321 -0.1258285 0.875646
0.30249113 -0.13818532 0.96163666
0.3284781 -0.138744 0.96552527
0.36764684 -0.15241557 1.0606662
0.37339193 -0.14580667 1.0146734
0.37996262 -0.14666855 1.0206724
0.38254666 -0.13889414 0.96656954
0.37522101 -0.1326524 0.92313349
0.37622321 -0.12328279 0.85792935
0.36448926 -0.11604422 0.80755556
0.35800761 -0.11291116 0.78575313
0.36406827 -0.11375529 0.791628
0.32800645 -0.10016018 0.6970185
0.36551845 -0.1049419 0.7302953
0.34692663 -0.094748795 0.659361
0.37066209 -0.10001242 0.69599044
0.40798831 -0.09686625 0.67409599
0.39345378 -0.086116672 0.59928918
0.40694195 -0.083115995 0.57840765
-0.10636421 -0.049046993 0.34600174
0.19553623 -0.14224058 1.0034341
0.20517035 -0.14449418 1.0193323
0.22726604 -0.14331526 1.0110151
0.22565663 -0.13708639 0.96707475
0.27231139 -0.13460523 0.94957125
0.25983202 -0.12562752 0.88623893
0.28989148 -0.13716149 0.96760428
0.33483303 -0.14886725 1.0501825
0.3853516 -0.14344192 1.0119091
0.37513667 -0.12306285 0.86814559
0.38325983 -0.11813164 0.83335793
0.37454289 -0.11385739 0.80320537
0.33911639 -0.099883378 0.70462573
0.35800552 -0.095674396 0.67493355
0.35608411 -0.090079248 0.63546336
0.36449915 -0.076218426 0.53768265
0.40749431 -0.082352877 0.58095753
-0.11000721 -0.048677325 0.34816957
-0.10901244 -0.048565686 0.34737086
-0.018670082 -0.020413011 0.14600587
0.20733285 -0.14555997 1.0411319
0.22792411 -0.14311957 1.023676
0.22816546 -0.14057225 1.0054561
0.24064639 -0.13909131 0.99486363
0.23834422 -0.13536847 0.96823585
0.28395826 -0.1334635 0.95461047
0.32837901 -0.13580185 0.97133601
0.37462914 -0.142331 1.0180355
0.4050743 -0.1400677 1.0018481
0.30851662 -0.10611886 0.75902474
0.38196027 -0.13001353 0.92993391
0.37308455 -0.12568432 0.89896882
0.38240731 -0.10915035 0.78070819
0.35959864 -0.10002142 0.7154125
0.39669329 -0.10849386 0.7760123
0.35099822 -0.092515171 0.66172302
0.33614498 -0.0861696 0.61633646
0.33126658 -0.083932281 0.60033369
0.35565388 -0.088736475 0.63469565
0.35483694 -0.086875677 0.62138689
0.42870599 -0.086239696 0.61683738
0.41515529 -0.083257675 0.59550893
-0.10626826 -0.047992229 0.34810996
0.21316315 -0.14149719 1.0263468
0.22459951 -0.13774824 0.99915278
0.24383672 -0.1427595 1.0355023
0.22987568 -0.12987059 0.94201291
0.23152474 -0.12966651 0.94053257
0.26920292 -0.12846094 0.93178689
0.27560261 -0.12959707 0.9400295
0.29205424 -0.13439393 0.97482336
0.31083047 -0.13623112 0.98814809
0.32055831 -0.1315558 0.95423567
0.3240276 -0.13213873 0.95846498
0.37752134 -0.14226133 1.0318881
0.39140052 -0.13560802 0.98362815
0.40501022 -0.13883191 1.0070127
0.37553972 -0.12348014 0.89565909
0.37758315 -0.12167114 0.88253772
0.36420149 -0.11339372 0.82249773
0.35524487 -0.1100738 0.7984165
0.37086016 -0.11065954 0.80266583
0.37126845 -0.10449719 0.75796783
0.37373435 -0.10294521 0.74671042
0.34578156 -0.087065995 0.63153064
0.35457614 -0.08723712 0.63277233
0.36991894 -0.075229824 0.54567754
-0.042910099 -0.034183532 0.2514962
-0.042117283 -0.033977568 0.24998093
0.21239126 -0.13758075 1.0122133
0.24659657 -0.14105886 1.0378033
0.25333303 -0.14362049 1.0566489
0.2606883 -0.13569337 0.99832833
0.25977331 -0.12404835 0.9126519
0.26915926 -0.12662858 0.93163574
0.29808652 -0.12457097 0.91649759
0.38459241 -0.13650244 1.0042793
0.38844442 -0.12721884 0.93597949
0.36487162 -0.1088478 0.80081809
0.37142533 -0.10728002 0.78928435
0.36001807 -0.10033935 0.73822033
0.33709431 -0.083356142 0.6132704
-0.10536335 -0.04656741 0.34757924
-0.040172487 -0.028671592 0.2140044
-0.040150061 -0.030756682 0.22956812
-0.043084934 -0.033413261 0.24939656
-0.040232286 -0.03282544 0.24500918
-0.020127267 -0.020405859 0.15230978
0.2096847 -0.13526237 1.0095984
0.24384503 -0.1413027 1.054684
0.24448967 -0.13785321 1.0289363
0.25606948 -0.1214425 0.9064461
0.30578798 -0.13387942 0.999277
0.32025433 -0.13640231 1.0181071
0.31147957 -0.13176972 0.98352873
0.30800438 -0.12604624 0.94080865
0.32226872 -0.12852722 0.95932734
0.37189159 -0.13384122 0.99899161
0.39458305 -0.12672824 0.94589937
0.37022918 -0.11148089 0.83209407
0.37462199 -0.1066556 0.79607737
0.35403877 -0.099440575 0.7422241
0.36250848 -0.099588275 0.74332702
0.35910445 -0.097796023 0.72994888
0.38005805 -0.097169757 0.72527587
0.36064634 -0.090726674 0.67718399
0.3427369 -0.085534632 0.63843095
0.34483039 -0.083400786 0.6225034
0.40670717 -0.086369336 0.64466059
0.3686977 -0.073096991 0.54559624
0.37262607 -0.069480717 0.51860428
-0.10462552 -0.045570195 0.34514523
-0.038609579 -0.022752225 0.17232347
-0.042025313 -0.025003552 0.18937528
-0.04336822 -0.027385086 0.2074126
-0.037372693 -0.02821362 0.21368778
-0.042102233 -0.032580405 0.24676132
-0.041711673 -0.032687634 0.24757373
0.21156076 -0.13177985 0.99808872
0.24426569 -0.13949233 1.0565034
0.24335057 -0.13521951 1.0241419
0.30617464 -0.1321035 1.0005409
0.38143355 -0.12197703 0.92384398
0.36444265 -0.10814589 0.81908882
0.36734754 -0.10213894 0.77359188
0.35473049 -0.095202684 0.72105801
0.3591392 -0.089036286 0.67435372
0.36953813 -0.085763097 0.64956272
0.40373313 -0.08420819 0.63778555
0.39041108 -0.076038122 0.57590592
-0.04221724 -0.02361086 0.1814996
-0.040778577 -0.027630121 0.2123965
-0.039884374 -0.027639687 0.2124697
-0.019691005 -0.019702822 0.15145802
0.21184701 -0.12871683 0.98946178
0.27794862 -0.12515211 0.96205819
0.33058375 -0.12720734 0.97785747
0.35684761 -0.1347577 1.0358981
0.35813957 -0.13441163 1.0332378
0.35983324 -0.13340217 1.0254773
0.36641204 -0.12658805 0.97309864
0.36286598 -0.12326425 0.94754517
0.35087734 -0.091982603 0.70708144
0.32748318 -0.085116684 0.654302
0.34723431 -0.087995589 0.67643249
0.35739779 -0.089453816 0.68764222
0.37695664 -0.093962908 0.72230351
0.3612439 -0.087886572 0.67559445
0.35165614 -0.084207654 0.64731348
0.33752698 -0.079264879 0.60931885
0.4421401 -0.079576075 0.61171138
-0.041874751 -0.023069292 0.18002713
-0.03860496 -0.026967317 0.21044636
0.25318581 -0.12424755 0.96959698
0.32875669 -0.13671428 1.0668844
0.33303553 -0.13659865 1.0659825
0.35293597 -0.1304788 1.0182251
0.3555094 -0.11573046 0.90313256
0.3763693 -0.10585326 0.82605326
0.38149691 -0.10294902 0.80338895
0.35367343 -0.09093827 0.7096597
0.35670042 -0.087584794 0.68348968
0.35417002 -0.083541989 0.65194094
0.34141579 -0.079285741 0.61872637
0.3885231 -0.084651172 0.66059744
0.42579067 -0.076163828 0.59436452
0.44822937 -0.079232037 0.61830771
0.34206259 -0.056314409 0.43946421
-0.1069307 -0.043594629 0.34544277
-0.06889087 -0.033945769 0.26898611
-0.041735783 -0.022643864 0.17942989
-0.04086329 -0.023694575 0.1877557
0.21348453 -0.12337124 0.97759187
0.30499107 -0.13421625 1.0635275
0.31454116 -0.1363858 1.0807203
0.31615984 -0.11877126 0.94114268
0.34893858 -0.127832 1.0129386
0.3482582 -0.12601888 0.99857223
0.37386179 -0.1218428 0.96548164
0.38642973 -0.12456387 0.98704159
0.37014824 -0.10110134 0.80112517
0.39775175 -0.085658312 0.67875516
0.39543295 -0.084849417 0.672346
0.4266631 -0.073624313 0.5833981
0.39200139 -0.066287041 0.52525795
0.39029419 -0.065809906 0.52147675
0.33713657 -0.054661244 0.43313539
-0.10996673 -0.043245733 0.34804142
-0.066233277 -0.032678843 0.26299918
0.33920485 -0.13583636 1.0932084
0.38506651 -0.12852699 1.0343829
0.35904133 -0.10075128 0.8108443
0.36151579 -0.10047561 0.80862629
0.37499052 -0.10038155 0.80786812
0.34267354 -0.087692618 0.70574844
0.3451789 -0.084254026 0.67807496
0.36745733 -0.088576317 0.71286023
0.37102807 -0.086565495 0.69667757
0.3863948 -0.089432895 0.71975434
0.41251475 -0.088763893 0.71437037
0.39394051 -0.079472363 0.63959229
0.39870936 -0.06734705 0.54200757
-0.041036233 -0.028698325 0.234635
0.32800817 -0.13584751 1.1106781
0.32957357 -0.13454831 1.1000558
0.34804749 -0.12281454 1.0041219
0.39377332 -0.12437773 1.0169023
0.40013981 -0.1250087 1.0220605
0.37675565 -0.0979231 0.80061138
0.39059162 -0.10106021 0.82626045
0.37003639 -0.087080061 0.711959
0.40437955 -0.084402204 0.6900655
0.41200328 -0.082967281 0.67833412
0.41300309 -0.0828771 0.67759573
0.42290807 -0.075352311 0.61607373
0.39648706 -0.065732718 0.53742504
0.39196205 -0.064238101 0.52520525
0.32736701 -0.051725924 0.42290664
-0.038723633 -0.018827528 0.1564188
-0.041045889 -0.021046877 0.17485714
-0.037770405 -0.021096051 0.17526591
-0.042375103 -0.025165439 0.20907462
-0.041465521 -0.02488777 0.20676708
0.38915026 -0.12300026 1.0218843
0.40130299 -0.12337905 1.0250317
0.38043118 -0.10921127 0.90732539
0.38160765 -0.097607374 0.81092203
0.35486585 -0.089547396 0.74395835
0.35767961 -0.087512493 0.72705257
0.35784382 -0.084611893 0.70295417
0.43291175 -0.08892107 0.73875511
0.42860895 -0.083470643 0.6934725
0.43724424 -0.073685646 0.61217892
0.39297819 -0.063199818 0.52506304
-0.10992031 -0.041198224 0.34789443
-0.040458038 -0.028436899 0.24013269
0.31994706 -0.12829614 1.0833822
0.32418936 -0.12723452 1.0744189
0.31952056 -0.11408824 0.96340573
0.35123807 -0.086425722 0.7298125
0.36653566 -0.086354852 0.72921383
0.37114131 -0.086702526 0.73214996
0.44038695 -0.076929986 0.64962661
0.41845 -0.07043314 0.59476447
0.43327898 -0.072270453 0.61027992
0.43644476 -0.07257992 0.6128937
0.41209513 -0.068121731 0.57524669
0.43691814 -0.071373343 0.60270452
-0.076287583 -0.034694731 0.29786682
-0.07257162 -0.033564985 0.28816724
-0.040698454 -0.028868675 0.24784803
0.33556384 -0.12425548 1.0667771
0.36648434 -0.10447121 0.89692271
0.35999262 -0.085980058 0.73816812
0.36031464 -0.084574282 0.72609961
0.38133663 -0.08545965 0.73370087
0.39620513 -0.075449944 0.64776456
0.42288905 -0.079421282 0.68185985
0.4185276 -0.077009857 0.66115654
0.40786529 -0.068145335 0.58505201
0.41677004 -0.068998516 0.59237659
-0.080085278 -0.035225987 0.3075614
-0.077458695 -0.034639299 0.30243933
-0.040623799 -0.0272699 0.23809636
0.30551884 -0.12111729 1.0574864
0.31552479 -0.12326014 1.0761966
0.35977 -0.084864318 0.74095929
0.36071014 -0.084713221 0.7396394
0.36104554 -0.083331168 0.72757256
0.38978523 -0.084164321 0.73484671
0.37883037 -0.080501378 0.70286524
0.39647549 -0.073982656 0.64594948
0.39502645 -0.071231782 0.62193167
0.41280401 -0.065998137 0.57623625
0.41729254 -0.066320002 0.57904661
0.31204969 -0.046043336 0.40200901
-0.081039786 -0.035040677 0.31122708
0.32185751 -0.12095433 1.0743011
0.30428821 -0.10396773 0.92342889
0.3281256 -0.11138988 0.98935139
0.3698374 -0.10578066 0.93953097
0.38728797 -0.10506707 0.93319285
0.3717854 -0.088950634 0.79004967
0.37077701 -0.084488332 0.75041521
0.39490938 -0.07320416 0.65019047
0.36969632 -0.065976501 0.58599544
0.38766438 -0.06129247 0.54439199
-0.083181486 -0.035057843 0.31685138
0.32827699 -0.12037748 1.0879666
0.40197879 -0.11614126 1.0496801
0.42570412 -0.11711335 1.0584656
0.39057368 -0.10466766 0.94598162
0.37183648 -0.087825596 0.79376328
0.36247349 -0.082237005 0.74325526
0.36030072 -0.077659786 0.70188677
0.40269142 -0.082015932 0.74125731
0.3479917 -0.062950015 0.56893933
0.3931002 -0.06988883 0.631652
0.38246542 -0.06640166 0.60013592
0.39671916 -0.067964733 0.61426151
0.41641515 -0.06608969 0.59731603
0.31980348 -0.11856914 1.0907904
0.32287681 -0.1188423 1.0933031
0.33884376 -0.12206888 1.1229864
0.3890385 -0.11294883 1.0390867
0.37391064 -0.095957696 0.882774
0.38462985 -0.0917629 0.84418356
0.35425332 -0.079307318 0.72959745
0.40979832 -0.08041501 0.73978627
0.37130922 -0.062493622 0.57491791
0.41810739 -0.067254066 0.61871231
0.42767167 -0.067302525 0.61915743
0.37864214 -0.058147341 0.53493333
0.41665733 -0.062292397 0.57306635
0.32599306 -0.046548277 0.42822599
0.31644946 -0.0449332 0.41336823
0.31924528 -0.044953614 0.41355658
-0.036452323 -0.021719724 0.20345271
-0.036544815 -0.022037745 0.20643151
-0.039265931 -0.024568558 0.23013771
0.32525122 -0.11843193 1.1093718
0.33205777 -0.11917275 1.1163114
0.34264094 -0.11628652 1.0892755
0.36223817 -0.10447979 0.9786793
0.37952465 -0.096141338 0.9005729
0.36928344 -0.084542871 0.7919265
0.41671759 -0.080621064 0.75519097
0.41416234 -0.079510629 0.74479091
0.37329245 -0.062322319 0.58378458
0.36970031 -0.061312735 0.57432723
0.42170298 -0.065378487 0.61241138
0.41393942 -0.063582778 0.59559083
0.45499057 -0.066222608 0.62031877
0.33066538 -0.046370804 0.43436348
0.31689745 -0.044191986 0.41395342
-0.050351217 -0.022278965 0.21256268
-0.030947 -0.016526401 0.15767789
-0.038738996 -0.024099261 0.2299298
0.32461882 -0.11604875 1.1072146
0.34540719 -0.11204499 1.0690149
0.35685146 -0.10925311 1.0423766
0.4206844 -0.10963142 1.0459849
0.39908046 -0.097280562 0.9281472
0.39961517 -0.09368521 0.89384568
0.35886168 -0.081406832 0.77669704
0.40531796 -0.088664114 0.84593832
0.35404873 -0.07642597 0.72917616
0.37290752 -0.076779187 0.7325455
0.36053735 -0.07361412 0.70234764
0.40340674 -0.080687404 0.76983273
0.27092099 -0.046424687 0.44293475
0.25622478 -0.043301046 0.41313314
0.39958376 -0.063999355 0.61061394
0.37308705 -0.058795333 0.5609628
0.39355248 -0.061039686 0.58237612
0.42311215 -0.064804554 0.61829627
0.41544616 -0.062459946 0.59592628
0.39143372 -0.058669925 0.55976593
0.43400753 -0.063309491 0.60403228
0.42075115 -0.060832977 0.58040285
0.46042949 -0.065602601 0.62591016
0.33116341 -0.045852393 0.43747425
0.32769656 -0.044126421 0.42100751
-0.10372208 -0.035197526 0.34216487
-0.046523541 -0.018379301 0.17867017
-0.05219765 -0.022464871 0.21838713
-0.044396356 -0.019634098 0.19086814
-0.033359051 -0.01675421 0.16287255
-0.036333352 -0.020860285 0.20278859
-0.035572007 -0.020922333 0.20339179
-0.038587049 -0.024491519 0.23808897
0.32119799 -0.11352342 1.103592
0.34077775 -0.11536062 1.1214525
0.33441371 -0.10789412 1.0488673
0.32984072 -0.10571003 1.0276352
0.36946136 -0.10510921 1.0217966
0.38039923 -0.10695666 1.039754
0.38599056 -0.10727543 1.0428525
0.3688246 -0.095346868 0.92689264
0.35409883 -0.081865907 0.79584086
0.34666997 -0.077182353 0.7503103
0.34587142 -0.076649964 0.74513495
0.40050191 -0.082313299 0.80019104
0.36467752 -0.059260547 0.57608879
0.36211592 -0.0574857 0.55883396
0.41495365 -0.061228633 0.59521973
0.37178957 -0.054194927 0.52684319
0.33510447 -0.045537293 0.4426806
0.33686393 -0.045391917 0.44126713
0.32881409 -0.04333654 0.42128646
-0.10440068 -0.034514844 0.34199226
-0.051512793 -0.021751106 0.21552169
-0.034878418 -0.016834915 0.16680944
-0.035019442 -0.020458043 0.20270967
0.32925275 -0.11333841 1.1230201
0.325396 -0.074887216 0.74202454
0.38495988 -0.086487651 0.85696805
0.38786155 -0.086726964 0.85933888
0.33023494 -0.072468698 0.71806109
0.39663708 -0.079638183 0.78909981
0.23305151 -0.038588583 0.38235724
0.23407304 -0.038221627 0.37872112
0.35905606 -0.056860328 0.56340373
0.37729633 -0.057437301 0.56912053
0.37451446 -0.055233002 0.54727995
0.4086014 -0.059516609 0.58972383
-0.049325064 -0.018596768 0.18788707
-0.048235193 -0.020154953 0.20362973
-0.03451176 -0.016336977 0.16505575
-0.039424002 -0.021522343 0.21744466
0.3287822 -0.11263829 1.1380078
0.32829535 -0.10123724 1.0228206
0.38396937 -0.10636473 1.0746249
0.38298357 -0.089949727 0.90878046
0.32639855 -0.07057488 0.71303332
0.27253234 -0.057847381 0.58444428
0.23121685 -0.037416011 0.37802172
0.23017582 -0.036861122 0.37241554
0.21466663 -0.033908337 0.34258354
0.35199338 -0.053414017 0.53965247
0.32719123 -0.048074961 0.48571146
0.36921781 -0.053570241 0.54123056
0.38795811 -0.056113422 0.56692529
0.36846995 -0.051680565 0.52213919
0.33594304 -0.043434978 0.43883216
0.32213843 -0.04107669 0.41500616
0.33023816 -0.041993886 0.42427266
-0.049311221 -0.018375963 0.18937612
-0.041942552 -0.024156094 0.24894392
-0.016917095 -0.013281316 0.13687229
0.32400602 -0.11045575 1.1383184
0.33169818 -0.10978061 1.1313607
0.32370186 -0.10559464 1.0882205
0.33028281 -0.10473126 1.0793229
0.33020437 -0.10398012 1.0715824
0.28413689 -0.058856189 0.6065501
0.18739772 -0.036331058 0.37441516
0.21396807 -0.03324756 0.34263742
0.34863782 -0.053261817 0.54889691
0.34656531 -0.052767605 0.54380417
0.3456471 -0.052451879 0.54055047
0.34661561 -0.052423596 0.54025936
0.3728528 -0.055467963 0.57163274
0.36552134 -0.050259918 0.51796091
0.39380139 -0.053500295 0.55135536
0.33163625 -0.042271882 0.4356389
0.33691067 -0.041885793 0.43165982
-0.017200783 -0.013008475 0.13680184
-0.016895846 -0.012998819 0.13670051
0.36906886 -0.10001528 1.0517975
0.38811564 -0.098572314 1.0366217
0.25220534 -0.052635968 0.55353892
0.23985618 -0.048911452 0.51437044
0.26119977 -0.052780002 0.55505335
0.1849584 -0.035595626 0.3743372
0.24651031 -0.037926078 0.39884412
0.21386588 -0.03267765 0.34364986
0.33236945 -0.049759001 0.5232842
0.35710734 -0.052232087 0.54929268
0.38500315 -0.05576241 0.58641756
0.45922565 -0.06095612 0.64103663
0.41095018 -0.05422461 0.57024562
-0.016865566 -0.012710184 0.13645542
0.33742744 -0.097921431 1.051272
0.36389619 -0.097189188 1.0434119
0.38916653 -0.10206181 1.0957249
0.3994621 -0.099950075 1.0730532
0.42195386 -0.099306166 1.0661384
0.27110052 -0.060225308 0.64657271
0.32085282 -0.070916414 0.76135051
0.23266134 -0.049418747 0.53055477
0.23952776 -0.049198687 0.52819204
0.18317568 -0.034681797 0.37233984
0.23294842 -0.036234468 0.38900864
0.32498944 -0.047182977 0.50655115
0.34264487 -0.049416959 0.53053534
0.3868413 -0.054352164 0.58351839
0.34145176 -0.047515273 0.51011813
0.34767616 -0.046029687 0.49417007
0.32756966 -0.040420681 0.43395221
0.3363806 -0.040254146 0.43216419
-0.11000453 -0.031968951 0.35053217
0.35565883 -0.09972924 1.0935093
0.23367625 -0.034721404 0.38071227
0.21605864 -0.031554282 0.34598505
0.21967843 -0.031864822 0.34938991
0.39411098 -0.052036643 0.57057035
0.39666748 -0.0520522 0.57073939
0.31413123 -0.040474594 0.44379449
0.38770097 -0.048919767 0.53639364
-0.12995614 -0.035744756 0.40047097
-0.10344169 -0.030674279 0.3436631
0.33418041 -0.097473919 1.0920602
0.33893049 -0.095523477 1.070208
0.35006982 -0.091271102 1.0225669
0.21334985 -0.045649946 0.51144493
0.23579425 -0.048705518 0.54567778
0.33916163 -0.047028154 0.52688575
0.31638348 -0.039537519 0.44296372
0.33674565 -0.038509727 0.43144846
0.38140345 -0.091023266 1.0424997
0.21031305 -0.044246703 0.50676155
0.27872252 -0.051480472 0.58961165
0.22198245 -0.030721694 0.35185826
0.22307184 -0.030768186 0.35239124
0.34785694 -0.047183186 0.54039395
0.338846 -0.045358479 0.51949584
0.34819359 -0.044150352 0.50565851
0.34545314 -0.043667316 0.50012636
-0.11492096 -0.031261712 0.36619854
-0.047642723 -0.02414009 0.28277647
0.32376313 -0.09095639 1.0654598
0.33698362 -0.094009221 1.1012207
0.33945012 -0.090283215 1.0575739
0.35096145 -0.086437821 1.0125285
0.36649424 -0.088624001 1.0381368
0.24715333 -0.048349321 0.56636214
0.24612615 -0.0479137 0.56125939
0.21817914 -0.041462839 0.48569357
0.21866736 -0.029790819 0.34896803
0.35403824 -0.046952218 0.54999638
0.35038593 -0.046161354 0.54073179
0.33602428 -0.042449057 0.49724627
0.35049036 -0.043451995 0.50899398
0.32476556 -0.040014327 0.4687258
0.32963645 -0.036656708 0.4293952
0.31592458 -0.094006121 1.1268491
0.33870867 -0.083056509 0.995597
0.3669287 -0.086708069 1.0393673
0.36693379 -0.081295311 0.97448409
0.21734403 -0.043024689 0.51573479
0.22814351 -0.043190956 0.51772916
0.27290267 -0.048379362 0.5799222
0.27616841 -0.04873693 0.58420873
0.34945205 -0.045898139 0.55017889
0.31784612 -0.03974095 0.47637331
0.34155267 -0.041637957 0.49911273
0.34305507 -0.041561484 0.49819613
-0.1049964 -0.028221965 0.34636855
0.33584261 -0.08942318 1.0974919
0.33915859 -0.089679778 1.1006407
0.34358096 -0.088396668 1.0848924
0.34849679 -0.082429469 1.0116562
0.37410599 -0.085824132 1.053321
0.24293888 -0.048956752 0.60084736
0.21157421 -0.041753322 0.51243949
0.21194845 -0.041611761 0.51070213
0.24146295 -0.035654545 0.4375881
0.24235225 -0.03537479 0.43415487
0.24655831 -0.03504926 0.43016052
0.2991569 -0.040850729 0.50136209
0.32040876 -0.0388785 0.477157
0.32648855 -0.039365679 0.48313546
0.32788169 -0.03549239 0.43559885
0.33821455 -0.035307586 0.43333054
-0.017715067 -0.011205882 0.14089215
0.26265615 -0.076856256 0.96631682
0.31715912 -0.07859081 0.98812544
0.33216989 -0.078644633 0.98880112
0.37215093 -0.081860423 1.029235
0.36482501 -0.078850687 0.99139321
0.36385363 -0.078186631 0.98304403
0.40237945 -0.08174479 1.0277811
0.23004569 -0.042552918 0.53502071
0.27261692 -0.045661271 0.57410002
0.19582327 -0.030985832 0.38958549
0.22351006 -0.03406322 0.42827761
0.24963245 -0.036262065 0.45592523
0.25554639 -0.034558058 0.43449998
0.22537504 -0.029002339 0.3646481
0.23307091 -0.029482961 0.37069023
0.33029974 -0.041500032 0.52178133
0.33851951 -0.042247504 0.53117931
0.34622854 -0.043065131 0.54145968
0.3459903 -0.042892158 0.53928459
0.3496632 -0.042777449 0.53784239
0.33705264 -0.040699452 0.51171589
0.32827228 -0.033729017 0.42407608
0.26626796 -0.075415373 0.97196209
0.35443908 -0.07934159 1.0225617
0.36920503 -0.079227209 1.0210875
0.35869613 -0.076072693 0.98043263
0.21801144 -0.040343791 0.51995552
0.21757337 -0.039856374 0.51367402
0.23344889 -0.042126924 0.54293549
0.25252953 -0.040894628 0.52705371
0.19353887 -0.030131906 0.38834345
0.32840806 -0.033192992 0.42779517
-0.10186467 -0.025600553 0.33842361
0.26003763 -0.071805298 0.94921935
0.3184334 -0.083998144 1.1104022
0.40648228 -0.077275276 1.02153
0.21212873 -0.03769514 0.49830496
0.19550312 -0.029052049 0.38404942
0.23871611 -0.033371776 0.44115412
0.256428 -0.035428047 0.46833646
0.29262328 -0.039204448 0.51825833
0.29836476 -0.039822936 0.52643418
0.29451895 -0.038158387 0.50443041
0.31448328 -0.039585799 0.52329898
0.22423355 -0.027070194 0.35785115
0.33434111 -0.039685905 0.5246228
0.34320307 -0.039803416 0.52617586
0.28731182 -0.03310442 0.43761909
0.31790501 -0.036158472 0.47799265
0.31630784 -0.031878948 0.42141938
-0.046006128 -0.020649225 0.28017116
0.2514087 -0.046817601 0.63522685
0.21505125 -0.038588405 0.52357137
0.21876605 -0.038850576 0.52712941
0.23710197 -0.040844798 0.55418634
0.23531133 -0.039548427 0.53659785
0.26162124 -0.042122543 0.5715239
0.26937872 -0.043170094 0.58573544
0.26040125 -0.0409697 0.55588138
0.21520653 -0.033252239 0.45116961
0.21578571 -0.033192933 0.4503659
0.21676257 -0.033048391 0.44840407
0.18876043 -0.027444303 0.3723675
0.22803921 -0.031942964 0.43340611
0.18488604 -0.025586426 0.34715962
0.19200656 -0.026360303 0.35765886
0.22145166 -0.030162543 0.40924883
0.26862031 -0.033540159 0.45507562
0.29946414 -0.036857456 0.50008547
0.22126317 -0.026294082 0.35676146
0.22358879 -0.026388556 0.35804355
0.33934522 -0.038725138 0.52542639
0.32698506 -0.031392843 0.42594147
0.32712162 -0.031318724 0.42493618
0.32944179 -0.03145352 0.42676532
0.33412725 -0.031638086 0.42926943
0.24852243 -0.067194879 0.93640864
0.25947791 -0.066923201 0.93262351
0.24313954 -0.050647795 0.70581329
0.35043347 -0.070801377 0.98666942
0.25720838 -0.04929626 0.68698037
0.24121171 -0.039664 0.55274677
0.17724589 -0.025741607 0.35872781
0.24183813 -0.028774351 0.40099132
0.33849227 -0.037608802 0.52410567
0.32556978 -0.031125724 0.43375909
0.32805687 -0.030579686 0.42615116
0.32993013 -0.030669183 0.42739785
-0.046152487 -0.01912415 0.27393138
-0.046305552 -0.019434094 0.27837133
0.20923069 -0.044042885 0.63086402
0.34821814 -0.068861961 0.98636782
0.20670018 -0.035879791 0.51393688
0.20843595 -0.035989791 0.5155133
0.23676424 -0.037877738 0.54255521
0.18781503 -0.026309818 0.37685835
0.19605303 -0.027230293 0.39004278
0.20002189 -0.026757538 0.3832711
0.24791333 -0.031005442 0.44411707
0.2322081 -0.026504248 0.37964225
0.22697631 -0.025638282 0.36723888
0.32965124 -0.030488282 0.43670976
-0.099182174 -0.022206008 0.32718837
-0.04744415 -0.019609392 0.28892851
0.20552339 -0.046228528 0.68113983
0.20675179 -0.044010758 0.64846385
0.20633155 -0.043628752 0.64283645
0.35951257 -0.068288565 1.0061768
0.24382699 -0.042500734 0.62621582
0.23328441 -0.040221572 0.59263337
0.24058557 -0.041256428 0.60788047
0.19604282 -0.033082068 0.48743856
0.2197426 -0.03649953 0.53779137
0.22959709 -0.037547171 0.55322754
0.23120674 -0.037235171 0.54862952
0.21578786 -0.031121612 0.45855248
0.2325363 -0.02838096 0.41817153
0.24568906 -0.028664201 0.42234433
0.33190164 -0.029180527 0.42995167
-0.096791148 -0.021049887 0.31930077
0.20606819 -0.045023084 0.68294537
0.2078003 -0.041844666 0.63473237
0.25575984 -0.04555428 0.69100082
0.19167784 -0.031586736 0.4791317
0.24769542 -0.039144814 0.59377849
0.25897908 -0.03874439 0.58770454
0.24333437 -0.035881758 0.54428196
0.20189068 -0.025296003 0.38370883
0.2286371 -0.027745545 0.4208653
0.23353428 -0.028118551 0.42652369
0.23494755 -0.028069615 0.42578065
0.23351789 -0.027265072 0.41357815
0.24644963 -0.027624726 0.41903293
0.2380634 -0.025569588 0.38785994
0.22599794 -0.023776948 0.36066687
0.33674407 -0.029243886 0.44359398
0.33219022 -0.028290898 0.42913735
-0.10089099 -0.020569265 0.32149148
-0.047336072 -0.017530978 0.27400446
0.24122553 -0.045082569 0.70462883
0.25108758 -0.044429302 0.69441736
0.22194001 -0.036270142 0.56689203
0.23187344 -0.036307693 0.56748009
0.25010705 -0.037589848 0.58751857
0.23779415 -0.034030616 0.53188992
0.24422279 -0.033976018 0.53103662
0.24412856 -0.033805817 0.52837622
0.20364928 -0.027688116 0.43275774
0.19984698 -0.026104063 0.40799999
0.21271005 -0.025657117 0.40101385
0.24101834 -0.02690351 0.42049515
-0.11980091 -0.022604585 0.36437702
-0.13190486 -0.025216252 0.40647602
0.25059479 -0.043250203 0.69717562
0.24354921 -0.033794969 0.54476273
0.19459219 -0.023714006 0.38225996
0.22693714 -0.02632913 0.42441535
0.23873398 -0.027049124 0.43602049
0.24140856 -0.026828498 0.43246436
0.26133114 -0.028712749 0.46283746
0.26547471 -0.029058039 0.4684031
0.23932782 -0.024105251 0.38856673
-0.13445117 -0.024897456 0.41432273
-0.016787156 -0.008454144 0.14068687
0.24890544 -0.061293602 1.0199951
0.22428772 -0.043140173 0.71790183
0.20715167 -0.038273096 0.63690889
0.25210056 -0.041897237 0.69721901
0.22400735 -0.031462967 0.52357996
0.22467504 -0.030938536 0.51485229
0.19078562 -0.022616327 0.37636244
0.19379061 -0.022876143 0.38068545
0.19849256 -0.023139685 0.38507175
0.20144768 -0.023007184 0.38286698
0.23611701 -0.02653563 0.4415834
0.24318705 -0.027006298 0.44941652
0.24843815 -0.027055115 0.45022881
0.25271571 -0.027204782 0.45272017
0.24005583 -0.023667127 0.3938489
0.33088881 -0.025973618 0.43222988
-0.13151006 -0.023108304 0.39740694
-0.13796236 -0.0245592 0.42236102
-0.018076628 -0.0082200766 0.14136481
-0.017360345 -0.008028537 0.13807106
0.26710367 -0.062017143 1.0665454
0.22713915 -0.047838569 0.82271063
0.23642549 -0.048298955 0.83062494
0.24334569 -0.049342096 0.8485657
0.20364477 -0.037644684 0.64739859
0.20484722 -0.036865056 0.63398993
0.21161038 -0.037584901 0.64637029
0.2112484 -0.036799908 0.63286936
0.2077525 -0.034851909 0.59936881
0.22224626 -0.03491509 0.6004554
0.2131522 -0.033294171 0.57257891
0.19580948 -0.029731661 0.5113138
0.18509874 -0.023081273 0.39694321
0.24771321 -0.026307166 0.45241988
0.26443189 -0.027335733 0.47010875
0.25343561 -0.026001394 0.44716132
0.25667506 -0.026039153 0.44781077
0.2444509 -0.02340275 0.40247107
0.24202675 -0.022770077 0.39158988
0.33221614 -0.02516368 0.43275559
0.33066142 -0.024976373 0.42953444
0.33306006 -0.024881214 0.42789829
-0.094402567 -0.017259479 0.30709076
-0.050568327 -0.01686886 0.30014086
0.24826171 -0.060350418 1.0737871
0.27008116 -0.060098708 1.0693084
0.23018923 -0.045796394 0.81483376
0.24076012 -0.04718554 0.83954942
0.20060565 -0.034894526 0.6208626
0.20440966 -0.035322607 0.62847865
0.2006934 -0.032948226 0.5862329
0.21959206 -0.03474921 0.61827624
0.23241495 -0.03655833 0.65046561
0.23277526 -0.030426741 0.54136884
0.25439364 -0.032289475 0.57451212
0.23677236 -0.029908508 0.53214824
0.18879187 -0.02317965 0.41242468
0.19368596 -0.021474361 0.38208401
0.19990483 -0.021796286 0.38781142
0.20150107 -0.021700412 0.38610542
0.19095273 -0.020480514 0.36440074
0.26169664 -0.025756955 0.45828068
0.24467319 -0.023726195 0.42214906
0.25033233 -0.023922086 0.42563462
0.24893649 -0.023447812 0.41719687
-0.099462554 -0.01767844 0.32581604
0.24899939 -0.058435678 1.0769774
0.26199335 -0.057748199 1.0643064
0.19633715 -0.033866704 0.62416732
0.20121329 -0.034242392 0.63109267
0.21057278 -0.033796191 0.62286866
0.22598846 -0.033321142 0.61411202
0.21796225 -0.03176868 0.58549988
0.21800736 -0.031414539 0.5789727
0.20433465 -0.028951257 0.5335753
0.1994938 -0.027799904 0.51235592
0.20591721 -0.028383434 0.52310991
0.22362858 -0.029237211 0.53884614
0.22697014 -0.029222608 0.53857648
0.2410668 -0.029682755 0.54705596
0.19140145 -0.02322939 0.42812026
0.18900557 -0.022093624 0.40718794
0.25252706 -0.025523037 0.47039306
0.22872211 -0.022754759 0.41937184
0.26218283 -0.025484413 0.46967971
0.24105963 -0.023253083 0.4285574
0.24231234 -0.022601098 0.41653955
0.33016509 -0.023665369 0.43615556
0.33017331 -0.023599327 0.43493819
0.33280605 -0.023457289 0.43232024
0.32899722 -0.022871286 0.42152095
-0.10741405 -0.018153399 0.34700406
-0.046315238 -0.013853878 0.26481915
0.23959816 -0.051819265 0.99053013
0.25870502 -0.053584278 1.0242683
0.2036857 -0.03342104 0.63884699
0.2212024 -0.034668326 0.66269028
0.20766819 -0.032135725 0.61427701
0.19429162 -0.029690295 0.56753302
0.23063202 -0.032787204 0.62673056
0.22808978 -0.031510711 0.60233021
0.20422867 -0.027439892 0.52451622
0.2375927 -0.029052049 0.5553335
0.24169777 -0.029407144 0.56212008
0.18027285 -0.020796478 0.39752662
0.19247204 -0.021593153 0.41275525
0.18779707 -0.019713372 0.37682235
0.19058456 -0.019751787 0.37755775
0.20005818 -0.020388335 0.38972485
0.20346078 -0.020066679 0.38357651
0.23626986 -0.022313535 0.42652488
0.25903183 -0.023819774 0.45531821
0.23937459 -0.021848112 0.41762733
0.24705984 -0.021896303 0.41854942
0.33531111 -0.022978336 0.43923306
0.32624501 -0.021867245 0.41799474
0.23373389 -0.049547732 0.98367059
0.21941379 -0.03398031 0.67461026
0.1938692 -0.028000295 0.55588758
0.22725061 -0.028612971 0.56805193
0.21635973 -0.027096957 0.53795445
0.24814446 -0.028642327 0.56863344
0.24790145 -0.028474778 0.56530786
0.19805092 -0.021393239 0.42471921
0.18441686 -0.018800288 0.37324119
0.19867709 -0.019741625 0.39192998
0.25434101 -0.024448097 0.48536623
0.20449241 -0.019497454 0.38708115
0.20626777 -0.019587427 0.38886845
0.21402259 -0.020242274 0.40186906
0.22671261 -0.020938277 0.41568744
0.24593228 -0.022362858 0.44396794
0.24479195 -0.0219208 0.4351927
0.24482435 -0.021840721 0.43360281
-0.13440149 -0.020599246 0.42537653
0.23282894 -0.0474509 0.97986186
0.24074948 -0.048197925 0.99529016
0.2466315 -0.047689855 0.98480022
0.24861717 -0.045363724 0.93676555
0.20620398 -0.035617054 0.73549449
0.21413228 -0.036159575 0.74669611
0.21971355 -0.036827505 0.76049054
0.24607792 -0.040645242 0.83932602
0.25408721 -0.041069865 0.84809649
0.23658927 -0.031499863 0.65047514
0.22983803 -0.030070961 0.62096655
0.21113428 -0.025421798 0.52496195
0.21257573 -0.025326163 0.52298725
0.24743791 -0.028006971 0.57834494
0.17143402 -0.018748581 0.38715947
0.18242697 -0.019573003 0.40418184
0.194657 -0.018833786 0.38891912
0.1906071 -0.018056393 0.37286615
0.24827471 -0.022306889 0.46063817
0.24962038 -0.022339165 0.4613055
0.24761106 -0.021156609 0.43688452
0.32928079 -0.020713747 0.42774093
0.25171149 -0.038502991 0.82834756
0.23268175 -0.033473194 0.72013628
0.19821137 -0.026912153 0.57898283
0.19265413 -0.025835007 0.55580997
0.22836855 -0.029357135 0.631585
0.21219561 -0.025056422 0.53905964
0.21556619 -0.024651289 0.53034437
0.21660966 -0.024641067 0.53012395
0.25004363 -0.028005004 0.60249472
0.18397662 -0.01903674 0.4095546
0.18738106 -0.019297302 0.41515815
0.21357113 -0.021386683 0.46011126
0.22343573 -0.019738764 0.42465687
0.21309 -0.018673152 0.40173018
0.22808081 -0.019592077 0.42149961
0.24763007 -0.021187603 0.45582688
0.32151425 -0.019199997 0.41306472
-0.1316833 -0.018437266 0.41397321
0.24824646 -0.036903799 0.82860076
0.19447941 -0.02498883 0.56107581
0.22726491 -0.027034372 0.60700405
0.21277362 -0.024608195 0.55252826
0.21169111 -0.024347752 0.54668295
0.21359719 -0.024166852 0.54262018
0.21498403 -0.024062455 0.54027617
0.22418493 -0.02430889 0.54580843
0.17795484 -0.017898947 0.40188587
0.20190518 -0.01973629 0.44314039
0.21112058 -0.020445287 0.45905936
0.18381193 -0.016713262 0.37526345
0.20312732 -0.017124474 0.38449728
0.23187181 -0.04156363 0.97583377
0.25765175 -0.044971406 1.055837
0.25250959 -0.042581916 0.99973929
0.24059235 -0.033723354 0.79175603
0.21933755 -0.028723717 0.67437589
0.19708601 -0.024218231 0.56859601
0.19796088 -0.024029344 0.56416237
0.19884515 -0.023990571 0.5632515
0.21517783 -0.024761856 0.58135808
0.21599363 -0.02443248 0.57362497
0.17260113 -0.016764402 0.3935951
0.19439575 -0.018344849 0.43069971
0.32614213 -0.018402785 0.43206108
0.33312792 -0.018638641 0.43759835
0.32420665 -0.0177899 0.41767061
0.32597852 -0.017789155 0.41765332
-0.12643729 -0.016266406 0.40017021
0.24816021 -0.039273441 0.96616733
0.24764283 -0.03854996 0.94836962
0.21420199 -0.030821502 0.75824153
0.20545858 -0.02424404 0.59642875
0.21263286 -0.024632096 0.60597575
0.18898015 -0.01582092 0.38921142
0.18067983 -0.015059769 0.37048554
0.19240104 -0.015493482 0.38115633
0.24499229 -0.018047392 0.44398427
-0.13019104 -0.015630931 0.40385485
-0.12739597 -0.015500933 0.40049505
-0.12507738 -0.015321732 0.39586604
0.24746613 -0.041427016 1.070346
0.21150911 -0.030598938 0.7905792
0.21313319 -0.025873125 0.66847861
0.2038814 -0.023195028 0.59928691
0.20467228 -0.022038817 0.56941533
0.24162135 -0.024836004 0.64168561
0.22873671 -0.022368938 0.57794225
0.18211213 -0.014265507 0.36857665
0.18858543 -0.014459848 0.3735975
0.24742962 -0.018127441 0.46835649
0.25882509 -0.018512994 0.47831595
0.25554782 -0.038835943 1.0564686
0.25806737 -0.03755939 1.0217434
0.20522514 -0.028425455 0.77326858
0.18381608 -0.02239415 0.60919821
0.1908672 -0.022928417 0.6237303
0.2054157 -0.02433604 0.66202509
0.20437267 -0.024046898 0.65415752
0.24871179 -0.026215076 0.71313965
0.22018564 -0.022789359 0.61994755
0.19405621 -0.019612819 0.5335356
0.2252233 -0.021863461 0.59476054
0.19854057 -0.015031219 0.40890145
0.26668531 -0.019257873 0.52388084
0.25072089 -0.017375499 0.47267425
0.25661477 -0.017501891 0.47611189
0.21395785 -0.014198393 0.38624632
-0.051211625 -0.010449946 0.30015147
0.25535548 -0.036753953 1.0556732
0.26511502 -0.036856234 1.0586048
0.24427316 -0.032837749 0.94318497
0.21539944 -0.028485954 0.81819355
0.22323886 -0.027102411 0.77845156
0.20905039 -0.023137927 0.66458333
0.23494366 -0.021479458 0.61694753
0.20026122 -0.014296651 0.4106375
0.25413567 -0.016680628 0.47911203
0.23890358 -0.015617907 0.44858801
0.20675801 -0.013147175 0.37761998
0.20953317 -0.01322031 0.37972379
0.2146147 -0.013334334 0.3829987
0.21616292 -0.013379574 0.38429582
0.25739831 -0.033499181 1.0190946
0.24566759 -0.031180739 0.94856918
0.23023014 -0.027411759 0.83390629
0.22334892 -0.025412023 0.77307332
0.21197495 -0.022001922 0.66933286
0.20806986 -0.019854575 0.60400903
0.23615587 -0.02038464 0.62013066
0.20292017 -0.015136987 0.46048951
0.18866763 -0.013871878 0.4220053
0.25903779 -0.016249299 0.49432945
0.22518495 -0.013788283 0.41946185
0.21246362 -0.01246351 0.37916005
-0.15594293 -0.013132125 0.42461729
-0.049504295 -0.0092039108 0.29760075
-0.047206894 -0.0090082586 0.29127502
0.25143123 -0.033022583 1.0677541
0.26141024 -0.032281995 1.0438117
0.19621411 -0.018179804 0.58782876
0.19832554 -0.016765207 0.54208803
0.23490477 -0.019184917 0.62032688
0.26061749 -0.015507907 0.50143445
0.22213845 -0.012547463 0.40571058
0.21649626 -0.012181163 0.39386833
0.21431494 -0.01178354 0.38101053
0.24062969 -0.012167037 0.39341092
-0.14339434 -0.011186093 0.38595641
-0.053979084 -0.0091692805 0.31637168
0.24934545 -0.030689776 1.0588962
0.24897124 -0.028093696 0.96932471
0.20798209 -0.019427061 0.67029631
0.21206442 -0.017623276 0.60805929
0.21298113 -0.017591625 0.60696805
0.20846182 -0.017113984 0.59049189
