# .PCD v0.7 - Point Cloud Data file format
VERSION 0.7
FIELDS x y z
SIZE 4 4 4
TYPE F F F
COUNT 1 1 1
WIDTH 1364
HEIGHT 1
VIEWPOINT 0 0 0 1 0 0 0
POINTS 1364
DATA ascii
0.12670368 -0.087146789 0.23601663
0.15332872 -0.085675463 0.23203182
0.16081744 -0.082397684 0.22315466
0.15531409 -0.077285767 0.20931041
0.15767413 -0.077787951 0.21067047
0.15999931 -0.078710273 0.21316826
0.15281218 -0.074119315 0.20073485
-0.037106454 -0.070987225 0.19326985
-0.022234857 -0.04504399 0.12263668
0.11306894 -0.090723693 0.24700451
0.11863416 -0.093443885 0.25441039
0.11524534 -0.084935099 0.23124444
0.12091935 -0.084754974 0.23075402
0.12647116 -0.086874589 0.23652494
0.13517737 -0.09103559 0.24785364
0.12605911 -0.083263353 0.22669291
0.14174193 -0.079816744 0.21730924
0.14064932 -0.078942791 0.2149297
0.14301264 -0.079490393 0.21642053
0.14181483 -0.07857047 0.21391594
0.13605767 -0.074897826 0.20391691
0.15430945 -0.082564831 0.22479117
0.16058677 -0.085391805 0.23248792
0.16205424 -0.085379571 0.23245466
0.16568202 -0.087024078 0.23693192
0.15461451 -0.080717519 0.21976149
0.16287047 -0.078143165 0.2127527
-0.035951436 -0.067660198 0.18519211
-0.024654567 -0.049102664 0.13439834
0.11240381 -0.089295581 0.24441004
0.10866642 -0.08360672 0.22883928
0.11318386 -0.081574813 0.22327769
0.12090254 -0.086049423 0.23552501
0.1295408 -0.087810174 0.24034441
0.12934071 -0.081833288 0.22398508
0.14517695 -0.081052706 0.22184861
0.13673788 -0.075114414 0.2055949
0.14264494 -0.076395333 0.20910084
0.15668869 -0.07991074 0.21872306
0.1683858 -0.079474151 0.21752799
-0.03572607 -0.066878363 0.18403137
-0.02072835 -0.044149876 0.12148857
0.11518747 -0.088953018 0.24477506
0.10728687 -0.081738085 0.22492146
0.12691647 -0.086257502 0.23735774
0.13022286 -0.081952974 0.22551286
0.16149193 -0.078189567 0.21515679
0.15510839 -0.074885592 0.2060653
0.14713901 -0.070836857 0.19492424
0.14987123 -0.071948528 0.19798326
0.15536225 -0.074165761 0.20408463
-0.043652117 -0.061608046 0.17044067
-0.030947626 -0.055192575 0.1526922
-0.021086395 -0.043580458 0.12056673
0.11422807 -0.091048405 0.25188863
0.11379665 -0.089026138 0.24629414
0.11070746 -0.084270477 0.23313737
0.1256755 -0.085641786 0.23693109
0.13624877 -0.089947402 0.24884295
0.13521373 -0.088917047 0.24599218
0.12521702 -0.080465853 0.22261167
0.13078022 -0.082473934 0.22816718
0.13243157 -0.081986651 0.22681916
0.13991195 -0.084756061 0.23448074
0.14681494 -0.08830519 0.24429965
0.15244573 -0.0850382 0.2352612
0.13950568 -0.075095236 0.20775378
0.15151381 -0.077372462 0.21405387
0.14706415 -0.073763832 0.20407033
0.16703469 -0.082076535 0.22706783
0.1636098 -0.079242468 0.21922719
0.16416413 -0.079283863 0.21934164
0.16502553 -0.076846972 0.21259999
-0.045424342 -0.062717408 0.17444837
0.11503214 -0.08868818 0.2466861
0.1108194 -0.080635399 0.22428703
0.1060515 -0.075532496 0.21009338
0.10934538 -0.077550143 0.21570563
0.13191456 -0.087991595 0.24474847
0.1259793 -0.082079649 0.22830451
0.1326974 -0.082009569 0.22810948
0.13884979 -0.074104264 0.20612085
0.15112609 -0.076759398 0.21350622
0.15062815 -0.075145051 0.20901573
0.15742713 -0.077844262 0.21652365
0.16132039 -0.079535589 0.22122812
0.16539007 -0.077455565 0.21544254
0.16482079 -0.07654956 0.21292245
0.11439925 -0.085757822 0.2398324
0.11218303 -0.080489829 0.2250998
0.12633365 -0.079704285 0.22290289
0.12768739 -0.074386939 0.20803213
0.13149792 -0.076340944 0.2134968
0.13710886 -0.078508675 0.21955919
0.13993293 -0.079311356 0.2218039
0.13861912 -0.073815256 0.20643318
0.13647455 -0.072213516 0.20195401
0.15111083 -0.076336503 0.21348441
0.14970028 -0.07472147 0.20896769
0.16582501 -0.081076697 0.22674096
0.16275126 -0.076446071 0.21379077
0.16491228 -0.077244282 0.21602309
-0.035932064 -0.065824345 0.18509233
0.11357635 -0.083925888 0.23599219
0.10989374 -0.08013694 0.2253381
0.11184651 -0.07716459 0.2169801
0.12109464 -0.081188455 0.22829497
0.12327284 -0.078534976 0.22083354
0.13531613 -0.083335802 0.23433292
0.15086097 -0.090562761 0.25465453
0.12507862 -0.073494583 0.20666027
0.13150489 -0.071465895 0.20095599
0.13692856 -0.071159557 0.20009458
0.15032011 -0.075752929 0.21301055
0.1667757 -0.081098109 0.22804081
-0.038916886 -0.067911729 0.19201159
-0.02088511 -0.042235434 0.11941528
0.11497551 -0.08842212 0.25000215
0.10699952 -0.074341699 0.21019149
0.10891944 -0.074425682 0.21042907
0.11388063 -0.076863557 0.21732163
0.10888964 -0.072900206 0.20611584
0.13548082 -0.086503044 0.24457622
0.15074253 -0.076948807 0.21756268
0.15019059 -0.075732604 0.2141242
0.15199262 -0.075718328 0.21408391
0.15115899 -0.074407011 0.21037614
0.165389 -0.077492908 0.21910107
0.16851479 -0.078734532 0.22261178
0.16449755 -0.075999275 0.2148782
-0.035528123 -0.061013982 0.17346275
-0.020635366 -0.042541012 0.1209439
0.11456454 -0.083730415 0.23804545
0.10423815 -0.07388638 0.21005893
0.1114651 -0.076060548 0.21624005
0.11622912 -0.07707426 0.21912205
0.14240748 -0.084249392 0.23952091
0.14284629 -0.084206328 0.2393986
0.14170313 -0.074702129 0.21237826
0.15154564 -0.076461747 0.21738088
0.16754216 -0.081053749 0.23043573
0.1654076 -0.077075586 0.21912575
-0.050796449 -0.068802997 0.19669425
-0.033907354 -0.061096445 0.17466271
-0.03427124 -0.062439546 0.17850232
-0.022292256 -0.043521807 0.12442017
0.11461443 -0.085195601 0.24355745
0.12441164 -0.079482093 0.22722352
0.14777482 -0.089848429 0.25685894
0.14793819 -0.089614868 0.25619113
0.12356615 -0.074301288 0.21241271
0.12474328 -0.074461922 0.21287191
0.13404328 -0.079722509 0.22791088
0.14304394 -0.083557397 0.2388742
0.15301567 -0.087203518 0.24929774
0.13639605 -0.07666415 0.21916759
0.1376515 -0.076580778 0.21892917
0.14761734 -0.077888817 0.22266865
0.14792877 -0.07354781 0.21025872
0.15647519 -0.077327177 0.22106326
0.16958743 -0.08135055 0.23256516
0.16918987 -0.078402206 0.22413647
-0.049600899 -0.067367867 0.19366777
-0.0487234 -0.067299187 0.19347048
-0.048162162 -0.068261966 0.19623828
-0.035964012 -0.065893173 0.18942845
-0.033740878 -0.063243777 0.18181205
-0.022315443 -0.042814091 0.12308121
-0.020682395 -0.041644767 0.11971962
0.11391956 -0.082338542 0.2367053
0.14635837 -0.088822603 0.2553457
0.1407482 -0.082644224 0.23758423
0.14593941 -0.084174037 0.24198186
0.13635743 -0.074178398 0.21324658
0.14878732 -0.07563138 0.21742368
0.14519632 -0.073120892 0.21020663
0.16928118 -0.081710279 0.23489928
0.1492492 -0.070988312 0.20407593
0.140845 -0.066408783 0.1909107
-0.025179207 -0.040415451 0.11683857
-0.037618101 -0.066299289 0.19166744
-0.03470844 -0.065447494 0.18920481
0.1061638 -0.074972138 0.21674001
0.12780696 -0.08170037 0.2361908
0.13078904 -0.081357181 0.23519886
0.14333904 -0.0868278 0.25101411
0.145886 -0.087067053 0.25170565
0.14077789 -0.082797155 0.23936164
0.15222186 -0.086692378 0.25062263
0.14394462 -0.076087847 0.21996534
0.1465221 -0.077198073 0.22317517
0.15123117 -0.078908518 0.22811985
0.15246147 -0.079294816 0.22923648
0.14885193 -0.075714275 0.2188853
0.1671856 -0.080726564 0.23337567
0.16843581 -0.080847785 0.23372614
0.13742501 -0.064998984 0.18790805
0.13730019 -0.064375535 0.18610585
0.13976389 -0.065341383 0.18889797
-0.040010154 -0.067191795 0.1953454
-0.036058307 -0.065327376 0.18992507
0.11345607 -0.087289333 0.25377476
0.11313182 -0.084612757 0.24599314
0.11346048 -0.081451714 0.23680317
0.10627621 -0.073984012 0.21509254
0.13435453 -0.083105311 0.24161065
0.13883835 -0.080034062 0.23268151
0.14818841 -0.08421728 0.24484336
0.15289354 -0.085383579 0.24823415
0.12907791 -0.071341068 0.20740855
0.13116699 -0.070088595 0.2037673
0.14873558 -0.077923849 0.22654665
0.14242071 -0.070268959 0.2042917
0.14959335 -0.073582321 0.21392465
0.150222 -0.070859388 0.20600832
0.16549498 -0.075840682 0.22049022
0.1646499 -0.074603602 0.21689379
0.16276926 -0.073544428 0.21381438
-0.025110364 -0.04065831 0.11887717
-0.036061943 -0.065704122 0.19210637
0.10640365 -0.074296772 0.21722972
0.12429839 -0.083864346 0.2452035
0.12804079 -0.085310206 0.24943078
0.13226169 -0.072687492 0.21252441
0.14239043 -0.076673999 0.2241801
0.14997727 -0.075192779 0.21984935
0.14660782 -0.072369739 0.21159542
0.14888209 -0.073041782 0.21356022
0.16160268 -0.078321993 0.22899854
-0.045071185 -0.064128205 0.1885705
-0.03732127 -0.05406855 0.15899003
-0.033170819 -0.061493322 0.18082249
0.12112123 -0.082297117 0.24199677
0.12545347 -0.082085833 0.24137533
0.1457876 -0.08279328 0.24345577
0.13578862 -0.074201569 0.21819162
0.14772648 -0.074577883 0.21929836
0.15887862 -0.076563984 0.22513843
0.15124887 -0.070126072 0.20620763
0.15892941 -0.071398601 0.20994949
-0.040969908 -0.058482498 0.17295814
-0.040282547 -0.058024898 0.17160475
-0.038905203 -0.056555957 0.16726053
0.10925585 -0.081463978 0.24092436
0.11283082 -0.080706134 0.2386831
0.13463908 -0.081869006 0.24212217
0.1351375 -0.081857443 0.2420882
0.1621353 -0.07675676 0.2270031
0.1535849 -0.072276339 0.21375251
0.15478164 -0.072623491 0.21477938
0.15611726 -0.07155247 0.21161163
0.16176933 -0.07287617 0.21552646
0.15851051 -0.071205303 0.21058512
-0.034766853 -0.062264219 0.18520737
-0.024963319 -0.04684031 0.13932824
-0.01639235 -0.035403818 0.10530996
-0.015682936 -0.034828007 0.10359728
0.10721153 -0.079479963 0.23641622
0.11936265 -0.083010748 0.24691868
0.12120742 -0.078079626 0.23225081
0.12222606 -0.078414693 0.23324764
0.13845509 -0.081208229 0.241557
0.13541871 -0.077689126 0.23108947
0.13563585 -0.077530921 0.23061883
0.13816953 -0.077847555 0.23156059
0.14583677 -0.08100681 0.24095786
0.15199691 -0.079913184 0.23770487
0.155945 -0.072748601 0.21639359
-0.033875167 -0.053065896 0.15876472
-0.033740699 -0.060769051 0.18181145
-0.028794587 -0.052465022 0.15696704
0.12363458 -0.081177339 0.24286985
0.12378913 -0.078319296 0.23431909
0.13448519 -0.081778005 0.24466681
0.13524729 -0.079460576 0.2377336
0.13832325 -0.078896478 0.23604584
0.1482994 -0.081898257 0.24502659
0.14684319 -0.078596085 0.23514712
0.15267688 -0.077225164 0.2310456
0.15764242 -0.076282516 0.22822511
0.15602452 -0.073014364 0.21844745
0.15592152 -0.072532058 0.21700442
0.14812714 -0.067697987 0.20254159
0.14955598 -0.068151861 0.2038995
0.15440011 -0.069749549 0.20867956
0.15536052 -0.069780275 0.20877147
0.15400988 -0.0681943 0.20402658
0.15448052 -0.068209574 0.20407224
-0.038026512 -0.060433462 0.18186533
-0.036701918 -0.062823594 0.18905807
-0.015868962 -0.034348503 0.10336649
0.10863847 -0.078133285 0.23513019
0.12948245 -0.080147833 0.2411927
0.13090056 -0.080704212 0.24286711
0.13337404 -0.078792229 0.23711336
0.15229255 -0.086993515 0.26179397
0.14529151 -0.080624551 0.24262726
0.1524111 -0.083679318 0.25182009
0.14256996 -0.077727243 0.2339083
0.14157933 -0.076649547 0.23066521
0.1575653 -0.078978688 0.23767436
0.16001832 -0.075578585 0.22744238
0.15339094 -0.069090128 0.20791614
-0.037616134 -0.059431463 0.17990243
-0.037125528 -0.059261948 0.17938936
-0.035971999 -0.062592059 0.18946993
-0.034303308 -0.06036815 0.18273807
-0.021853626 -0.04231298 0.12808383
-0.02574414 -0.058664411 0.1775806
0.10297722 -0.074664503 0.2260139
0.11739689 -0.078153774 0.23657608
0.12422913 -0.077998817 0.23610699
0.12667507 -0.078893572 0.23881543
0.13095063 -0.079009473 0.23916638
0.13187951 -0.079260498 0.23992622
0.13491303 -0.080457956 0.2435509
0.13275915 -0.078267485 0.23692024
0.15575379 -0.070977688 0.21485353
0.15565425 -0.0690988 0.20916641
0.15054065 -0.064068526 0.19393909
0.15655249 -0.066262215 0.20057964
-0.035732329 -0.050449997 0.15361929
0.11576986 -0.076617017 0.23329747
0.12510896 -0.079707846 0.24270904
0.12747818 -0.080219373 0.24426639
0.12391895 -0.077661619 0.23647821
0.12417132 -0.077503651 0.2359972
0.13387918 -0.079678953 0.24262094
0.1310882 -0.076535553 0.23304939
0.14405733 -0.081326365 0.24763739
0.14984721 -0.082179472 0.25023508
0.14594263 -0.076489046 0.23290789
0.14759725 -0.076832145 0.23395252
0.14887893 -0.072351843 0.22031009
0.16354495 -0.075198114 0.22897685
0.15671039 -0.065938637 0.20078194
-0.031241894 -0.041557655 0.12729597
0.11060709 -0.10887544 0.33349824
0.12808585 -0.1062278 0.32538795
0.11546105 -0.08553952 0.26201749
0.11617059 -0.085238233 0.26109469
0.11255342 -0.081798315 0.25055778
0.11256665 -0.078092322 0.23920596
0.12476629 -0.079347953 0.24305212
0.1274237 -0.080368638 0.24617851
0.1317907 -0.080144599 0.24549246
0.13449413 -0.079880416 0.24468303
0.14964908 -0.082171544 0.251701
0.13771009 -0.073502049 0.22514522
0.13870507 -0.073775381 0.22598243
0.13969046 -0.07404162 0.22679806
0.14384168 -0.07418251 0.22722948
0.14458758 -0.074316278 0.22763932
0.15202719 -0.073444381 0.22496867
0.15702838 -0.069891945 0.21408713
0.14796168 -0.063811079 0.1954608
0.14723563 -0.062788799 0.19232953
-0.047138035 -0.058747858 0.1810298
-0.029366791 -0.041738823 0.12861669
-0.027702808 -0.040124997 0.12364376
-0.032574952 -0.054454371 0.16779935
-0.020826042 -0.044023305 0.13565636
0.13378495 -0.10354678 0.31907618
0.11233437 -0.077467069 0.23871231
0.11419553 -0.078394458 0.24157012
0.10872132 -0.072665155 0.22391546
0.10919344 -0.072660878 0.22390211
0.11482638 -0.075417653 0.2323972
0.11450797 -0.074884564 0.23075449
0.12632531 -0.073159426 0.22543859
0.14097106 -0.080113471 0.24686718
0.14770073 -0.08061868 0.24842393
0.13880211 -0.074423864 0.22933483
0.1502223 -0.079702824 0.24560177
0.1414308 -0.074259892 0.22882962
0.14270651 -0.073406637 0.22620022
0.14869899 -0.075215012 0.23177278
0.15194124 -0.072735623 0.22413242
0.16343045 -0.076076925 0.23442852
0.16161728 -0.074774429 0.23041499
0.15361184 -0.068765625 0.21189904
0.15436357 -0.06869708 0.21168792
0.15312308 -0.066967264 0.20635748
0.14717847 -0.0634536 0.19553018
-0.02893573 -0.038365766 0.11893547
-0.032618284 -0.050321802 0.15599954
-0.020838797 -0.043786213 0.13573909
0.098010421 -0.10478033 0.3248235
0.13289291 -0.10715617 0.33218873
0.10397106 -0.078001201 0.24180698
0.11115402 -0.079819083 0.2474426
0.10875374 -0.077725708 0.24095285
0.10995197 -0.077844754 0.24132216
0.10945988 -0.073693678 0.22845352
0.1085853 -0.071823269 0.22265518
0.11815685 -0.077140078 0.23913753
0.12676501 -0.079658791 0.24694574
0.12649041 -0.076005176 0.23561919
0.13242716 -0.073164016 0.22681153
0.1360932 -0.074915156 0.23224008
0.14861995 -0.075225845 0.23320329
0.14928657 -0.075310633 0.23346627
0.15306455 -0.07569842 0.23466849
0.15848643 -0.077116296 0.23906386
0.15761441 -0.072265312 0.22402537
0.15608567 -0.066890597 0.20736361
0.14719003 -0.062195301 0.19280803
0.15560108 -0.064485639 0.19990814
0.15727991 -0.065002903 0.20151162
-0.02790153 -0.039180964 0.12219918
-0.022040844 -0.041419581 0.12918115
0.11013383 -0.10250889 0.31970906
0.12724024 -0.10535727 0.32859254
0.11540091 -0.083160624 0.25936472
0.11414307 -0.081861004 0.25531149
0.11023015 -0.076494798 0.2385751
0.11641306 -0.07825157 0.2440542
0.11064607 -0.074043319 0.23092949
0.1091193 -0.072057262 0.22473526
0.11007684 -0.072371021 0.22571361
0.11206287 -0.073036537 0.2277894
0.1178214 -0.074838787 0.23341024
0.13120723 -0.078993171 0.2463671
0.1220237 -0.071736783 0.22373569
0.13825351 -0.077919215 0.24301755
0.13978857 -0.077331766 0.24118543
0.13986206 -0.077088147 0.24042571
0.13918036 -0.074521959 0.23242223
0.13904423 -0.073143765 0.22812378
0.14759785 -0.067061141 0.20915306
0.16188997 -0.071392491 0.22266173
0.14884144 -0.062866062 0.19606924
0.15104574 -0.063262776 0.19730651
0.15877002 -0.065223217 0.20342088
-0.029705882 -0.038573161 0.12103748
-0.026821256 -0.038149744 0.1197089
-0.026335716 -0.037820011 0.11867416
-0.024180591 -0.042007819 0.13181484
-0.017062902 -0.0344605 0.10813236
0.11166924 -0.10395284 0.32619035
0.1127699 -0.081161752 0.25467503
0.10813922 -0.076354817 0.23959148
0.1116274 -0.073266476 0.22990072
0.11871511 -0.074633196 0.23418915
0.12704438 -0.073658228 0.23112988
0.13638276 -0.075547323 0.23705757
0.13794947 -0.076132342 0.23889339
0.13541794 -0.073377207 0.23024809
0.1439231 -0.073700473 0.23126245
0.14797455 -0.074245259 0.23297191
0.14951807 -0.074518159 0.23382819
0.15345019 -0.075718582 0.2375952
0.15577781 -0.076361731 0.23961318
0.14602417 -0.069523484 0.21815562
0.14842063 -0.069773212 0.21893919
0.15607631 -0.070912868 0.22251546
0.15197378 -0.065648168 0.20599544
0.14505762 -0.061942786 0.19436848
0.14767355 -0.062345654 0.19563246
0.15536046 -0.063960955 0.20070136
-0.049203753 -0.060348228 0.1905272
-0.026413143 -0.03734006 0.1178875
-0.0312801 -0.047874078 0.15114462
-0.030384123 -0.047483563 0.14991176
-0.017055333 -0.034705296 0.10956907
0.11343485 -0.099959478 0.31558526
0.12484556 -0.1032605 0.32600701
0.10017926 -0.073797494 0.23298848
0.1102457 -0.07700257 0.2431072
0.10916656 -0.075185701 0.23737109
0.13690394 -0.075654402 0.23885095
0.14325422 -0.073414698 0.23177981
0.15639293 -0.076195538 0.24055934
0.15998268 -0.072687238 0.22948313
0.16028732 -0.070870087 0.22374618
0.14779085 -0.062190592 0.19634366
0.14841598 -0.062100947 0.1960609
0.14518863 -0.059904873 0.18912745
0.15989822 -0.065247342 0.20599461
-0.051048696 -0.060719132 0.19288218
-0.029359698 -0.037989363 0.12067807
-0.028791428 -0.038965672 0.12377942
-0.031288087 -0.050736398 0.16117072
0.0932495 -0.098685101 0.31348598
0.096266568 -0.10043462 0.31904376
0.10676289 -0.10757546 0.3417275
0.10581475 -0.10447581 0.33188105
0.11161679 -0.10199927 0.32401407
0.11321652 -0.10219298 0.32462943
0.11344725 -0.098189101 0.31191051
0.13769287 -0.10608263 0.33698547
0.12781477 -0.081082806 0.25757015
0.11915821 -0.073378876 0.23309755
0.12671226 -0.075505152 0.23985195
0.12693858 -0.072417244 0.23004282
0.14131123 -0.079997003 0.25412083
0.14845711 -0.083084241 0.26392806
0.14166003 -0.073164076 0.23241532
0.14250839 -0.073089659 0.23217881
0.15177035 -0.074968293 0.23814654
0.15026343 -0.069777608 0.22165763
0.1534822 -0.065872461 0.20925248
0.14544696 -0.06135118 0.1948899
0.1533528 -0.063772768 0.2025826
-0.051930428 -0.061886027 0.19781089
-0.028808951 -0.03737478 0.11946368
-0.032633841 -0.048828438 0.15607393
-0.031899512 -0.04822287 0.15413809
-0.025101483 -0.054980755 0.17573893
0.10563451 -0.10578109 0.33811605
0.10250932 -0.10058711 0.32151389
0.10726053 -0.10053171 0.32133687
0.11065555 -0.10112371 0.32322896
0.13143593 -0.10389747 0.33209503
0.13807517 -0.10517003 0.33616269
0.12585765 -0.079691306 0.25472307
0.14362437 -0.079280674 0.25341058
0.14482778 -0.079644561 0.2545737
0.14357227 -0.077213615 0.24680364
0.14323395 -0.074832112 0.23919141
0.14734977 -0.074074164 0.2367686
0.15008074 -0.073184937 0.23392642
0.14850253 -0.068750724 0.21975303
0.14822018 -0.066720754 0.21326447
0.15748286 -0.068165168 0.21788144
0.15337235 -0.06541878 0.20910263
0.14500147 -0.060960069 0.19485116
0.15489239 -0.063124016 0.20176792
-0.029324472 -0.037807196 0.12160146
-0.030694544 -0.044726968 0.14385819
-0.029539764 -0.045796812 0.14729917
-0.03047055 -0.050467148 0.16232049
-0.022516191 -0.040027127 0.12874162
-0.015831172 -0.032513902 0.10457635
-0.024476826 -0.054088667 0.17396867
0.093906701 -0.10741468 0.34548461
0.10212249 -0.10093801 0.32465327
0.10201985 -0.10015605 0.32213807
0.11926472 -0.099039033 0.31854534
0.12311155 -0.099396363 0.31969476
0.12953901 -0.10231419 0.32907951
0.13772893 -0.10479964 0.33707368
0.11075348 -0.077021658 0.24772942
0.11427242 -0.070383742 0.22637963
0.12117863 -0.073090091 0.23508418
0.12712902 -0.075428098 0.24260414
0.1273585 -0.074650779 0.24010396
0.14309591 -0.076761186 0.24689174
0.14736211 -0.068667531 0.22085965
0.14731324 -0.064706445 0.20811951
0.15459919 -0.065916404 0.2120111
0.14592779 -0.060793638 0.19553423
0.16347212 -0.066391349 0.21353853
0.16697007 -0.067623228 0.21750069
-0.03108865 -0.042068079 0.13615751
-0.02980715 -0.041499376 0.13431692
-0.022673786 -0.040550634 0.13124621
-0.0225752 -0.048832655 0.15805185
0.093413174 -0.10874741 0.3519721
0.092742622 -0.10541977 0.3412019
0.095117152 -0.098796383 0.31976461
0.11110783 -0.10485761 0.33938241
0.11230069 -0.077240005 0.24999523
0.11434346 -0.069987059 0.2265203
0.12305254 -0.073756248 0.23871958
0.12469298 -0.074430868 0.24090314
0.12620199 -0.075021774 0.24281573
0.12105477 -0.069393679 0.22459972
0.14266676 -0.074406072 0.24082291
0.1383028 -0.070601791 0.2285099
0.14612007 -0.069671616 0.22549939
0.14285499 -0.065314129 0.21139598
0.14941895 -0.065024585 0.21045864
0.15385109 -0.066552669 0.21540463
-0.032054603 -0.048050016 0.15650368
-0.023542106 -0.040828481 0.13298237
-0.022787511 -0.040497541 0.1319046
0.080960095 -0.10555823 0.34381378
0.083189249 -0.10375588 0.33794332
0.091656923 -0.1027223 0.33457661
0.096638381 -0.10346188 0.33698559
0.098640859 -0.10108535 0.32924497
0.098396301 -0.09412016 0.30655885
0.11222464 -0.099404261 0.32376945
0.11163145 -0.096498698 0.31430566
0.11261278 -0.095620722 0.31144619
0.11673784 -0.096277818 0.31358635
0.13106042 -0.10058279 0.32760823
0.10163897 -0.073673472 0.23996186
0.10041577 -0.0713467 0.23238325
0.10151839 -0.071775123 0.2337786
0.11190146 -0.076481074 0.24910629
0.11335766 -0.077109486 0.25115323
0.12470049 -0.074273646 0.24191654
0.12823904 -0.075753018 0.24673498
0.12908679 -0.072667778 0.23668623
0.143969 -0.079183683 0.25790918
0.14365572 -0.07870999 0.25636637
0.14279836 -0.077647895 0.25290704
0.140369 -0.075188473 0.24489629
0.14543933 -0.073004261 0.23778212
0.14591306 -0.066714466 0.21729577
0.1507439 -0.067631602 0.22028291
0.16506678 -0.070323661 0.22905123
0.14479399 -0.059737891 0.19457221
-0.031769156 -0.04205431 0.13784802
-0.015652418 -0.032460317 0.10640013
0.08175236 -0.10402767 0.34098792
0.091520727 -0.10192011 0.33407974
0.091757119 -0.10061346 0.32979667
0.10000759 -0.1056038 0.34615433
0.096786439 -0.097858652 0.32076681
0.10823578 -0.10219581 0.33498347
0.11354536 -0.098719761 0.32358944
0.1145044 -0.096043512 0.31481707
0.11740309 -0.097330987 0.3190372
0.13089973 -0.072935924 0.23907351
0.13768077 -0.071417257 0.23409545
0.13285869 -0.067686081 0.22186542
0.14173037 -0.07194908 0.23583889
0.15444642 -0.067380786 0.22086453
0.15510637 -0.065467581 0.21459341
0.16150385 -0.064004004 0.20979607
-0.031106353 -0.042490751 0.14017189
-0.028139353 -0.039192781 0.12929237
-0.030449569 -0.049170837 0.16220868
-0.022777975 -0.040982127 0.1351949
0.084201396 -0.10191832 0.33621645
0.083076298 -0.099705622 0.32891691
0.093671024 -0.10529296 0.34734941
0.091854692 -0.10243927 0.33793509
0.091190457 -0.10090511 0.33287406
0.098232865 -0.094025955 0.31018078
0.11014909 -0.1026604 0.33866465
0.11010414 -0.098105684 0.32363915
0.11132842 -0.097965464 0.32317662
0.11506146 -0.092629716 0.30557466
0.12251717 -0.097524673 0.32172251
0.10348994 -0.073324949 0.24189031
0.10469395 -0.07308276 0.24109137
0.12016565 -0.072162107 0.23805428
0.12395489 -0.073503941 0.24248099
0.13226312 -0.075892165 0.25035918
0.13521355 -0.07370846 0.24315548
0.14368081 -0.077431262 0.25543654
0.14292592 -0.076156333 0.25123084
0.1327827 -0.06818977 0.22494996
0.13310248 -0.067862526 0.22387064
0.14299899 -0.071874753 0.23710644
0.15208191 -0.075109154 0.24777627
0.14512706 -0.068342581 0.22545409
0.1432029 -0.067213267 0.2217288
0.1388095 -0.062070027 0.20476162
0.15038437 -0.066202208 0.21839333
0.15244228 -0.066694111 0.220016
0.14680082 -0.063443109 0.20929134
0.16090328 -0.068289295 0.2252785
0.1547125 -0.065077588 0.21468329
0.15586734 -0.063674852 0.21005583
0.15297127 -0.061956376 0.20438683
0.17163205 -0.068151981 0.22482526
0.16672337 -0.065834209 0.21717918
0.16931051 -0.065757319 0.21692562
-0.033005774 -0.042348891 0.14060569
-0.029094458 -0.039871559 0.1323806
-0.02816385 -0.038975254 0.12940466
-0.02407825 -0.040476292 0.13438857
-0.015786111 -0.032320395 0.10730934
0.079854429 -0.10402708 0.34538865
0.085193396 -0.10514976 0.34911597
0.084819853 -0.10200836 0.33868611
0.092200577 -0.10548331 0.3502233
0.093725026 -0.10636391 0.35314715
0.091294467 -0.098830059 0.3281337
0.10185355 -0.09955366 0.33053601
0.10677063 -0.099527493 0.33044887
0.11189252 -0.10294007 0.34177935
0.11761636 -0.096827194 0.32148361
0.12401843 -0.094891056 0.31505525
0.1238845 -0.094276637 0.31301534
0.11976033 -0.07268849 0.24133885
0.11995083 -0.071875468 0.23863947
0.12313324 -0.072853029 0.24188495
0.12694043 -0.074171305 0.24626195
0.13317394 -0.073544309 0.2441802
0.13495737 -0.073096886 0.24269474
0.14758557 -0.076694086 0.25463808
0.13770819 -0.071298331 0.23672318
0.14466447 -0.072245523 0.23986793
0.14196205 -0.062874302 0.20875382
0.14662069 -0.063539699 0.21096313
0.15721321 -0.067713588 0.22482109
0.14829975 -0.063679799 0.21142828
0.15528661 -0.06587702 0.21872342
0.15779501 -0.064048871 0.21265376
0.15849429 -0.062010705 0.2058866
0.16424137 -0.063553452 0.21100867
0.16487056 -0.063622206 0.21123695
-0.033275545 -0.040928692 0.13677347
-0.03756696 -0.048778355 0.16300499
-0.030310333 -0.040482178 0.13528144
0.091300607 -0.10051517 0.33589685
0.086933315 -0.093501434 0.3124584
0.10135835 -0.099117711 0.33122671
0.10373926 -0.10004832 0.33433652
0.10050029 -0.096261606 0.32168233
0.12885678 -0.09587431 0.32038808
0.14017278 -0.09382318 0.31353378
0.14699072 -0.09791857 0.32721949
0.12453848 -0.07542558 0.25205338
0.12078851 -0.071910128 0.24030578
0.13296938 -0.074714094 0.24967587
0.14961076 -0.077244624 0.25813234
0.14945793 -0.076882198 0.25692117
0.13981253 -0.071395889 0.23858726
0.1463601 -0.072620422 0.24267948
0.15161484 -0.074698299 0.24962318
0.14564365 -0.068617344 0.22930205
0.14391667 -0.066243321 0.22136867
0.14734334 -0.065871537 0.22012639
0.15286726 -0.064822346 0.21662021
0.15480858 -0.064282671 0.21481669
0.15731627 -0.061666146 0.20607281
-0.033103168 -0.043102771 0.14498067
-0.030817986 -0.042097732 0.14160001
-0.024088919 -0.04045397 0.13607132
-0.023071885 -0.039219618 0.13191915
-0.023166835 -0.048220187 0.16219354
0.079021513 -0.10256107 0.34497499
0.081913173 -0.10157521 0.34165907
0.10324001 -0.10244851 0.34459639
0.10098815 -0.097433493 0.32772779
0.099301517 -0.092594951 0.31145275
0.11073011 -0.096764907 0.32547915
0.11119562 -0.094212294 0.3168931
0.12828988 -0.093834937 0.31562388
0.14075786 -0.091417417 0.30749214
0.12185156 -0.071766526 0.24139416
0.1232391 -0.071974233 0.24209309
0.13059837 -0.071470901 0.24039984
0.15117103 -0.07754302 0.26082432
0.1484893 -0.072683051 0.24447715
0.14240855 -0.064697862 0.21761811
0.15556687 -0.068876162 0.23167205
0.15912992 -0.069787249 0.2347368
0.15441734 -0.066258252 0.22286654
0.16966057 -0.071693063 0.24114716
0.16826272 -0.068201736 0.22940385
0.15715176 -0.062964216 0.21178663
-0.030208886 -0.039822415 0.13482869
0.081433833 -0.10032026 0.33965921
0.085216045 -0.093331322 0.31599629
0.08705163 -0.09459199 0.3202647
0.088080645 -0.094228253 0.31903303
0.10722047 -0.097367093 0.32966053
0.10994518 -0.093684852 0.31719339
0.12100184 -0.09384729 0.31774342
0.13448548 -0.09772329 0.33086646
0.14319927 -0.096447691 0.32654774
0.15124565 -0.095797271 0.32434547
0.14553362 -0.074992806 0.25390685
0.14954466 -0.075927153 0.25707018
0.14577764 -0.072418094 0.24518943
0.14348561 -0.070770681 0.23961163
0.14204139 -0.069809169 0.23635614
0.14484477 -0.070435449 0.23847663
0.14289206 -0.064492941 0.21835697
0.15904862 -0.061881498 0.20951521
-0.043162882 -0.05395107 0.1838752
-0.032163441 -0.049706772 0.16940987
-0.016217887 -0.032346874 0.11024404
-0.022187173 -0.044905335 0.15304554
0.088888705 -0.10414131 0.35493267
0.084815085 -0.09688808 0.33021247
0.096042395 -0.096822456 0.32998872
0.098374784 -0.096343651 0.3283571
0.10862082 -0.096094921 0.32750905
0.10686237 -0.092746198 0.31609595
0.11504853 -0.092809752 0.31631291
0.13533384 -0.098730668 0.33649242
0.13020051 -0.092050686 0.31372559
0.13873851 -0.092828259 0.31637585
0.14681882 -0.094548061 0.32223725
0.14663047 -0.093985841 0.3203212
0.14787644 -0.093475178 0.31858075
0.11817712 -0.068984076 0.2351104
0.13040149 -0.072718531 0.24783814
0.13420182 -0.071359292 0.24320567
0.13887513 -0.072167024 0.24595857
0.13667542 -0.065793797 0.22423732
0.14342642 -0.066931263 0.22811401
0.14453596 -0.066100836 0.22528386
0.15897447 -0.070360035 0.23979998
0.16086388 -0.068332255 0.23288906
0.157098 -0.062298879 0.21232593
0.17316091 -0.066183358 0.22556508
-0.033792794 -0.04273738 0.14662838
-0.025046289 -0.040744632 0.13979149
-0.024017215 -0.039542153 0.13566589
-0.018485725 -0.035096124 0.12041187
0.086826742 -0.10105152 0.34669983
0.10556358 -0.093373105 0.32035577
0.10852605 -0.0923976 0.31700873
0.10822302 -0.091567889 0.31416214
0.11580962 -0.092262566 0.31654561
0.11749732 -0.091469556 0.31382465
0.1200363 -0.089855388 0.30828655
0.12596345 -0.093268365 0.31999636
0.14173371 -0.0946652 0.32478881
0.1460703 -0.094327703 0.32363069
0.14511019 -0.091540247 0.31406748
0.15290368 -0.094275966 0.32345331
0.11891562 -0.067801952 0.2326231
0.12244844 -0.06952554 0.23853672
0.12728161 -0.07197015 0.2469238
0.13098752 -0.073155627 0.25099111
0.14789116 -0.075485736 0.25898564
0.14103204 -0.06938763 0.23806334
0.14173383 -0.067071125 0.23011553
0.14309484 -0.065886095 0.2260499
0.14713365 -0.066620991 0.22857141
0.15641195 -0.06898956 0.23669779
0.16069275 -0.069972441 0.24006987
0.15702277 -0.061856404 0.21222425
0.16071004 -0.062764972 0.21534157
0.15574783 -0.060653299 0.20809662
0.1620391 -0.062214971 0.2134546
0.16449726 -0.062629774 0.21487772
-0.027088344 -0.042752594 0.14766574
-0.025522292 -0.040755868 0.14076924
-0.022325695 -0.038364723 0.13251019
-0.016522825 -0.032052636 0.11070848
0.057537198 -0.08740288 0.3018862
0.086129606 -0.09872885 0.34100568
0.096524596 -0.090690836 0.31324255
0.10528964 -0.093725398 0.32372379
0.10457891 -0.090708375 0.31330311
0.10557622 -0.090415448 0.3122915
0.11602229 -0.087228984 0.30128539
0.11923474 -0.089149401 0.30791843
0.12580729 -0.092531368 0.31959987
0.14717782 -0.095311612 0.32920277
0.1449973 -0.092137471 0.31823933
0.15386176 -0.096861571 0.33455598
0.13356394 -0.07007885 0.24204969
0.14758527 -0.074271142 0.25652957
0.15721017 -0.072886765 0.25174809
0.14662677 -0.066389486 0.22930682
0.16395217 -0.068509147 0.23662794
0.16172618 -0.06274046 0.21670318
0.15935558 -0.059437707 0.20529544
0.16241246 -0.060411513 0.20865905
-0.038454771 -0.046268091 0.16088855
-0.022209704 -0.037909061 0.13182175
0.071370542 -0.087162077 0.30308974
0.084486783 -0.095388129 0.33169448
0.10950595 -0.090853512 0.31592631
0.1109466 -0.091484666 0.31812108
0.10577112 -0.086160973 0.29960871
0.11724579 -0.087556854 0.30446255
0.11030298 -0.064199626 0.22324228
0.11784166 -0.06629318 0.23052227
0.12848312 -0.071680248 0.24925482
0.13150316 -0.071584225 0.2489208
0.14595395 -0.072686866 0.25275505
0.15867311 -0.069502771 0.24168301
0.16688764 -0.069054425 0.24012387
0.14922947 -0.057176173 0.19881952
-0.030691147 -0.035107642 0.12291121
-0.038176119 -0.045622304 0.15972281
-0.035185158 -0.050114408 0.17544973
-0.022562563 -0.037304744 0.13060319
-0.022108436 -0.037481204 0.13122106
0.059017479 -0.08556883 0.29957509
0.090768456 -0.098481938 0.34478354
0.094199538 -0.10057156 0.35209942
0.095234931 -0.097026095 0.33968663
0.097432673 -0.090314522 0.31618965
0.10557896 -0.092720687 0.32461345
0.10061878 -0.085012659 0.29762793
0.12259692 -0.09406653 0.32932544
0.12140954 -0.089556143 0.31353462
0.11148369 -0.065582916 0.22960472
0.11202854 -0.065044492 0.22771955
0.11284095 -0.064951792 0.22739518
0.12142122 -0.068129957 0.2385217
0.12478876 -0.069436401 0.24309576
0.12434012 -0.066687748 0.23347259
0.14026266 -0.064598247 0.22615719
0.14039558 -0.063780278 0.22329366
0.14078635 -0.063741118 0.22315657
0.16639739 -0.070332736 0.2462337
0.15316141 -0.062946349 0.22037411
-0.023377001 -0.050185069 0.17690122
0.069879353 -0.088189214 0.31086504
0.094463289 -0.095584825 0.33693457
0.097468078 -0.097879186 0.34502184
0.099988759 -0.096750423 0.34104311
0.10164285 -0.091668263 0.32312858
0.10156065 -0.090366066 0.31853855
0.10378712 -0.090526596 0.31910443
0.11405987 -0.092780113 0.32704782
0.1228767 -0.09310481 0.32819235
0.14249414 -0.095438257 0.33641791
0.13870853 -0.091974542 0.32420814
0.13632751 -0.088624731 0.31240022
0.1495592 -0.091406479 0.3222059
0.12377411 -0.067559138 0.2381444
0.13111633 -0.067148551 0.23669708
0.1330682 -0.067368343 0.23747194
0.13904798 -0.064718097 0.22812986
0.13870925 -0.06433481 0.22677863
0.13973278 -0.063916177 0.22530305
0.14009565 -0.062996641 0.22206163
0.15176028 -0.066882342 0.2357589
0.15783042 -0.064029858 0.22570384
0.16017193 -0.064194918 0.22628558
0.15955949 -0.062441126 0.2201035
-0.030138731 -0.034300029 0.12174118
-0.029857337 -0.034576803 0.12272358
-0.032444596 -0.038244963 0.13574302
-0.022344708 -0.036441505 0.12934184
0.068191588 -0.086289838 0.30626893
0.09321636 -0.093676731 0.33248723
0.11334199 -0.091006517 0.32300985
0.11540061 -0.09209843 0.32688558
0.11232251 -0.088042825 0.3124907
0.1111148 -0.086581334 0.30730367
0.1157617 -0.088118717 0.31276
0.14843017 -0.090932146 0.32274592
0.11444044 -0.0652567 0.2316159
0.12192249 -0.066640481 0.23652732
0.12215859 -0.066493779 0.23600662
0.12140459 -0.065542087 0.23262894
0.13105345 -0.069331422 0.24607837
0.12524956 -0.065996125 0.23424029
0.14644223 -0.069898531 0.24809122
0.13739276 -0.06350942 0.22541416
0.16363269 -0.069542199 0.24682653
0.17697096 -0.06624122 0.23511016
-0.029675901 -0.034739837 0.12415898
-0.036021888 -0.04333134 0.15486467
-0.030493557 -0.037720948 0.13481343
-0.030481219 -0.045956701 0.16424763
-0.018733501 -0.033674151 0.12035024
0.05863899 -0.087061942 0.31115651
0.067804754 -0.085208237 0.30453157
0.082659662 -0.085763738 0.30651689
0.10938591 -0.084148571 0.3007443
0.12740535 -0.092570752 0.330845
0.13002807 -0.085895106 0.30698621
0.14889699 -0.091869488 0.3283385
0.1493004 -0.088771269 0.31726563
0.11588985 -0.065627202 0.2345494
0.11735445 -0.066170365 0.23649073
0.1430952 -0.070114493 0.25058699
0.14405251 -0.070320353 0.25132287
0.13723588 -0.061913565 0.22127712
0.16597521 -0.06937997 0.24796164
0.16673833 -0.065910667 0.23556244
0.1620422 -0.062543467 0.22352827
-0.029710114 -0.033345491 0.12000954
-0.024554968 -0.03763108 0.13543332
0.071370006 -0.085771918 0.30869126
0.096009195 -0.09233591 0.33231509
0.10851449 -0.086454302 0.31114709
0.11734706 -0.083283335 0.29973471
0.14275438 -0.094121605 0.33874154
0.13509411 -0.088621467 0.31894672
0.1409986 -0.09111549 0.3279227
0.15183806 -0.092164367 0.33169758
0.12042469 -0.0671404 0.24163675
0.12229514 -0.067892134 0.24434197
0.12777263 -0.064841256 0.23336208
0.14432067 -0.068933487 0.24808991
0.14385313 -0.068458661 0.24638116
0.13612992 -0.063390911 0.22814238
0.1322549 -0.060502857 0.21774828
0.13828093 -0.061317608 0.22068071
0.13899606 -0.061425149 0.22106755
0.14692658 -0.063631952 0.22900999
0.15973026 -0.068492547 0.24650311
0.15695637 -0.067081809 0.24142599
0.1607312 -0.062156111 0.22369838
0.16116589 -0.061591342 0.22166574
-0.029661059 -0.033057466 0.11981142
-0.028875291 -0.033037394 0.1197387
-0.032279849 -0.040524527 0.14687443
-0.02540952 -0.038217634 0.13851368
-0.02375114 -0.036575794 0.13256288
0.060511768 -0.082077801 0.2974776
0.061606169 -0.082693294 0.2997086
0.081694543 -0.084930554 0.3078171
0.082229316 -0.084131464 0.30492103
0.095124364 -0.090844795 0.32925236
0.096910596 -0.088617176 0.32117856
0.11459011 -0.086419106 0.31321216
0.12724131 -0.087290779 0.31637144
0.15357643 -0.091288537 0.3308605
0.11926091 -0.064640224 0.23427808
0.14563692 -0.070105731 0.25408685
0.14204121 -0.067868665 0.24597919
0.13736564 -0.061110824 0.22148633
0.14289421 -0.061864763 0.22421896
0.15026867 -0.064196274 0.23266912
0.16096002 -0.067865357 0.24596703
0.15772343 -0.063992605 0.23193097
0.1585393 -0.063525036 0.23023617
0.15895849 -0.060322702 0.21862996
0.15946454 -0.05747357 0.20830357
0.17123836 -0.061204404 0.22182548
0.17799038 -0.06326735 0.22930241
-0.034020841 -0.03639257 0.13283491
-0.031948149 -0.034462929 0.12579167
-0.029019773 -0.032679081 0.1192807
-0.038551748 -0.052666977 0.1922375
-0.015386105 -0.02996023 0.1093564
0.057426393 -0.08163248 0.2979635
0.07618922 -0.08126691 0.29662919
0.081888497 -0.083857059 0.30608332
0.096493065 -0.090830579 0.33153713
0.10439658 -0.089706182 0.32743299
0.13190597 -0.090333238 0.32972181
0.13827759 -0.08944042 0.32646286
0.1464988 -0.088924542 0.32457995
0.15406817 -0.091356084 0.3334552
0.12293208 -0.067290604 0.24561465
0.13170069 -0.068576202 0.25030732
0.12513405 -0.063106179 0.23034155
0.1419006 -0.068335474 0.24942863
0.14089245 -0.067093685 0.24489605
0.13548976 -0.06047678 0.22074378
0.13613182 -0.060552493 0.22102022
0.15671092 -0.06373471 0.23263538
0.15779811 -0.063772157 0.23277223
0.15835571 -0.060741842 0.22171128
0.15482539 -0.056674153 0.20686424
0.17537171 -0.063291445 0.23101759
-0.035009444 -0.042505085 0.15625501
-0.035352707 -0.043335229 0.15930665
-0.035638511 -0.046364725 0.17044365
-0.038847148 -0.052693799 0.19371021
-0.015804708 -0.030099645 0.11065066
-0.023342073 -0.048049226 0.1766361
0.056777894 -0.081036538 0.29790246
0.074252069 -0.080651879 0.2964884
0.10732979 -0.09157221 0.33663332
0.09942466 -0.082076609 0.30172598
0.11728734 -0.088237569 0.32437456
0.13404554 -0.090662599 0.33328927
0.13542962 -0.087863296 0.32299864
0.13303143 -0.067949489 0.24979258
0.13352543 -0.067929164 0.24971771
0.13758677 -0.066537693 0.24460256
0.14280224 -0.06677635 0.2454797
0.14009982 -0.063415721 0.23312557
0.13561982 -0.060105279 0.22095597
0.14303881 -0.059850201 0.22001851
0.1445381 -0.059307665 0.2180239
0.16106623 -0.064835444 0.23834479
0.1670751 -0.064402476 0.23675334
0.152358 -0.057171091 0.21016932
0.15439618 -0.056438312 0.20747566
0.17171818 -0.061706826 0.2268436
-0.038346708 -0.04853934 0.17972231
-0.036678791 -0.047866538 0.17723119
-0.035425663 -0.050394744 0.18659222
-0.023403943 -0.035705134 0.13220203
-0.017129302 -0.030559927 0.11315143
-0.014903545 -0.029049903 0.1075604
0.055654764 -0.079760298 0.2953217
0.085891426 -0.086707696 0.32104504
0.097046554 -0.088113755 0.32625139
0.11582249 -0.091373801 0.33832216
0.10866946 -0.08519879 0.31545818
0.12772125 -0.0866891 0.32097638
0.13989198 -0.092466414 0.34236753
0.13975996 -0.089116096 0.32996261
0.14122492 -0.086977854 0.32204556
0.15173697 -0.092105314 0.34103072
0.14591283 -0.087727159 0.32481992
0.15894783 -0.092060044 0.34086299
0.13413161 -0.067749858 0.25085163
0.14122838 -0.066795453 0.24731779
0.14133924 -0.06635116 0.24567282
0.13871545 -0.063931912 0.2367152
0.14459234 -0.064751118 0.23974836
0.13524407 -0.058895022 0.21806562
0.14435166 -0.058998004 0.21844685
0.14470583 -0.058387354 0.21618593
0.15600419 -0.0625467 0.23158634
0.16162509 -0.064391673 0.23841751
0.16106802 -0.061457023 0.22755158
0.16044033 -0.061033249 0.22598267
0.15443885 -0.057878986 0.21430361
0.1570397 -0.05715847 0.21163571
0.17249829 -0.06154412 0.22787404
-0.037510872 -0.042847291 0.15979743
-0.036420465 -0.046704814 0.17418385
-0.038797915 -0.051874727 0.19346476
-0.034474492 -0.047616556 0.17758429
-0.017345786 -0.030295685 0.11298645
-0.017116666 -0.03031759 0.11306822
-0.016946375 -0.030445829 0.11354661
-0.019858897 -0.041641802 0.15530169
0.05893755 -0.085802987 0.31999922
0.074886978 -0.078833252 0.29400575
0.094958127 -0.09151496 0.34130168
0.099632978 -0.084928855 0.31673908
0.0976215 -0.081012383 0.30213273
0.10331166 -0.083524391 0.31150138
0.13169432 -0.088268131 0.32919288
0.13476312 -0.084458932 0.31498635
0.15404743 -0.088987321 0.33187497
0.15620613 -0.087416723 0.3260175
0.12134641 -0.062602416 0.23347342
0.13448268 -0.065096304 0.24277413
0.14296633 -0.063788086 0.23789537
0.13991708 -0.059872344 0.22329175
0.15947086 -0.060227707 0.22461712
0.15686816 -0.058890179 0.21962869
0.15156621 -0.056393474 0.21031737
0.17708987 -0.060837939 0.22689283
-0.041656792 -0.052495927 0.1972115
-0.035735309 -0.049000099 0.18407881
-0.03482759 -0.048830673 0.18344223
-0.0178895 -0.030178413 0.11337125
-0.015139759 -0.029085442 0.10926533
-0.015159369 -0.030050188 0.11288965
-0.017676771 -0.037422985 0.14058697
0.047892272 -0.079346061 0.29807973
0.088948548 -0.087109163 0.32724345
0.09228605 -0.08897832 0.33426535
0.086811066 -0.08179979 0.30729783
0.095053017 -0.083856001 0.31502235
0.10612136 -0.08517389 0.31997311
0.10161299 -0.081033155 0.30441773
0.12350094 -0.088819727 0.3336693
0.15540093 -0.087903976 0.33022928
0.15463346 -0.085149422 0.3198812
0.13781184 -0.070292339 0.26406753
0.13281077 -0.063575521 0.2388345
0.13929242 -0.061262473 0.23014498
0.15233034 -0.060386032 0.22685242
0.15552324 -0.061456099 0.23087239
0.16259724 -0.062660903 0.23539853
0.17897123 -0.062231317 0.23378456
-0.038690805 -0.042775229 0.1618762
-0.024688125 -0.029116914 0.11018848
-0.035337389 -0.042078018 0.15923774
0.04233104 -0.081553891 0.30862808
0.061338961 -0.082275495 0.31135905
0.08733052 -0.084900007 0.32129133
0.094618022 -0.08590509 0.32509482
0.095073164 -0.084457695 0.31961715
0.10564095 -0.088145301 0.33357227
0.11623853 -0.084948361 0.32147396
0.12889963 -0.080823913 0.30586541
0.14431053 -0.087384626 0.33069384
0.14502889 -0.086547971 0.32752764
0.1455099 -0.086417884 0.32703519
0.14960247 -0.082876638 0.31363404
0.12201452 -0.063071713 0.23868513
0.13062906 -0.061600894 0.23311913
0.13782638 -0.061256528 0.23181581
0.14223707 -0.061023131 0.23093259
0.14855546 -0.060781017 0.23001635
0.16741896 -0.065259427 0.24696434
0.16686386 -0.064838618 0.2453717
0.1456961 -0.054064587 0.20459902
0.14818913 -0.054498985 0.20624304
-0.034682214 -0.040994048 0.15628541
-0.037917435 -0.048559546 0.18512809
-0.036588907 -0.048899293 0.18642354
-0.030037701 -0.043456525 0.16567338
-0.023223341 -0.035702333 0.13611162
-0.01789254 -0.029742599 0.11339056
0.059136569 -0.082309559 0.31379688
0.060539961 -0.082393944 0.3141185
0.065263093 -0.084155664 0.32083499
0.069388151 -0.083344772 0.31774342
0.098890841 -0.087833732 0.33485734
0.11165589 -0.084495023 0.32212877
0.11692888 -0.081918687 0.31230676
0.13474864 -0.087881044 0.33503759
0.15034109 -0.090366438 0.34451282
0.14908975 -0.084249988 0.32119429
0.12968564 -0.061886251 0.23593509
0.13145322 -0.060156688 0.22934115
0.14180046 -0.062112466 0.23679745
0.14282346 -0.059180871 0.2256211
0.15071356 -0.061210275 0.23335779
0.15057439 -0.059769168 0.22786379
0.15520519 -0.060434476 0.2304002
0.1664322 -0.064195082 0.24473703
0.16420346 -0.062549025 0.23846185
0.15221626 -0.055900693 0.21311569
0.17370063 -0.058535725 0.22316158
-0.027996838 -0.029960975 0.11507607
-0.039894164 -0.045068592 0.17310262
-0.033773422 -0.039623946 0.15219021
-0.025878429 -0.037604973 0.14443564
-0.014025807 -0.029545173 0.11347902
0.087116539 -0.082153529 0.31554091
0.10282081 -0.083963051 0.32249105
0.10481882 -0.084462181 0.32440805
0.10768324 -0.085637346 0.32892179
0.1109727 -0.082844734 0.3181957
0.12024814 -0.083144978 0.31934869
0.11845362 -0.081441864 0.31280768
0.1361801 -0.087229073 0.33503544
0.12954384 -0.080032498 0.30739439
0.13810891 -0.082398593 0.31648219
0.15195143 -0.086829871 0.33350217
0.1497007 -0.084748581 0.325508
0.14587301 -0.080341429 0.30858076
0.14863473 -0.080766931 0.31021535
0.15788466 -0.080412626 0.30885422
0.17087966 -0.086309448 0.33150327
0.12927812 -0.061234489 0.23519349
0.1350981 -0.061827496 0.23747122
0.13548523 -0.060415849 0.23204923
0.13987666 -0.061252937 0.2352643
0.14892811 -0.06063877 0.23290551
0.16260535 -0.059630245 0.22903204
0.14802247 -0.053796589 0.20662582
0.16209018 -0.05543603 0.21292245
0.16835743 -0.056782305 0.21809351
-0.027868688 -0.028840974 0.11160791
-0.041050255 -0.043988571 0.1702255
-0.04165405 -0.045854881 0.1774478
-0.038466394 -0.043946236 0.17006171
-0.031502306 -0.037403822 0.14474404
-0.034157097 -0.041368514 0.16008639
-0.039122045 -0.050411597 0.19508123
-0.033889771 -0.046127543 0.17850268
-0.025759697 -0.037152827 0.14377284
0.051985681 -0.083611444 0.3235569
0.055766642 -0.084098771 0.32544291
0.060102642 -0.080586001 0.311849
0.076560259 -0.078329876 0.30311835
0.085693538 -0.081469566 0.3152684
0.10234231 -0.088274017 0.34159994
0.095113099 -0.07976234 0.30866182
0.10934836 -0.081522122 0.31547177
0.11620957 -0.083052471 0.32139385
0.12001568 -0.082834736 0.32055104
0.13727975 -0.081292316 0.31458247
0.14438683 -0.079649255 0.30822408
0.14419675 -0.079183117 0.30642021
0.15597099 -0.08374691 0.32408118
0.1598404 -0.085068926 0.32919705
0.13161808 -0.059785023 0.23135412
0.13331419 -0.05965893 0.23086619
0.13559163 -0.059792832 0.23138428
0.1434772 -0.062137023 0.24045587
0.14545852 -0.060607046 0.23453522
0.14788693 -0.058208644 0.22525406
0.15096754 -0.057547748 0.2226963
0.1716677 -0.056993008 0.2205497
-0.05207026 -0.048499897 0.18910611
-0.029794276 -0.035109669 0.13689625
-0.033971131 -0.040428802 0.15763593
-0.036792696 -0.047560334 0.18544257
-0.034504771 -0.04661113 0.18174171
-0.023202717 -0.033614159 0.13106513
-0.017810166 -0.030173436 0.11764932
-0.015719533 -0.029096305 0.11344957
0.059864223 -0.077933952 0.3038727
0.060376704 -0.077757493 0.30318475
0.076498687 -0.07767798 0.30287457
0.098050416 -0.087689161 0.34190929
0.098685324 -0.08760412 0.34157789
0.10276544 -0.08797203 0.34301221
0.094117284 -0.078333423 0.30543041
0.11240834 -0.087488636 0.34112751
0.10298926 -0.078627691 0.3065778
0.10462028 -0.079367951 0.30946386
0.11591345 -0.083201155 0.32441008
0.12848645 -0.087020442 0.33930194
0.1359393 -0.084881708 0.33096266
0.14337885 -0.07849814 0.30607259
0.15898335 -0.084722042 0.33034003
0.13051182 -0.060659692 0.2365185
0.12934834 -0.058093756 0.2265135
0.13259214 -0.058889374 0.22961593
0.14583808 -0.062909603 0.24529111
0.14983577 -0.063047498 0.24582875
0.14503103 -0.059974253 0.23384583
0.14660788 -0.059198231 0.23082006
0.15038776 -0.058939517 0.22981131
0.14957911 -0.053232729 0.20755994
-0.051922441 -0.048752427 0.19154286
-0.050535738 -0.048599944 0.19094384
-0.029343009 -0.033654675 0.13222539
-0.039622784 -0.049758181 0.19549453
-0.032130599 -0.045106143 0.17721701
-0.014362574 -0.028587997 0.11231911
-0.017414808 -0.035862312 0.14089894
0.049886763 -0.083469599 0.32794297
0.051091015 -0.078838497 0.30974782
0.053388536 -0.079300895 0.31156456
0.057783067 -0.078041077 0.30661488
0.062548041 -0.079094216 0.31075251
0.08232969 -0.086630523 0.34036171
0.083031356 -0.080932677 0.31797564
0.087053061 -0.080880597 0.31777108
0.086426735 -0.07967715 0.31304276
0.13951665 -0.088292792 0.34689271
0.13690269 -0.085278958 0.33505177
0.14060569 -0.082412496 0.32378983
0.14832097 -0.07985954 0.31375945
0.15403014 -0.082190201 0.32291615
0.15042132 -0.077153191 0.30312645
0.13346189 -0.061560541 0.24186456
0.13206607 -0.059085831 0.23214173
0.13305849 -0.059307039 0.23301089
0.15462482 -0.065721706 0.2582134
0.15373933 -0.058273628 0.22895062
0.14811617 -0.055436388 0.2178036
0.1459052 -0.052307308 0.20550954
0.17050964 -0.06040071 0.23730767
0.17107385 -0.056405872 0.22161257
0.1718387 -0.056191295 0.22076929
-0.028711438 -0.028553605 0.1130476
-0.035176635 -0.046798348 0.1852808
-0.032150269 -0.044267148 0.17525935
-0.029701293 -0.041870922 0.16577256
0.050593197 -0.078490987 0.31075644
0.081383109 -0.083504602 0.33060586
0.077709913 -0.077059418 0.30508864
0.081012726 -0.079008624 0.31280577
0.085845649 -0.081699267 0.32345855
0.094467342 -0.084462821 0.33439958
0.095662236 -0.077871963 0.30830586
0.10975236 -0.083584175 0.33092093
0.10709101 -0.079011455 0.31281722
0.13258129 -0.079867333 0.31620562
0.13927907 -0.076493397 0.30284774
0.15987021 -0.083902925 0.332183
0.16166872 -0.068928793 0.27289832
0.15918618 -0.062049821 0.24566352
0.14642626 -0.052093074 0.20624352
0.17158085 -0.05614084 0.22226918
0.17252612 -0.056139246 0.22226286
-0.050352812 -0.046556234 0.18575227
-0.050369203 -0.046941519 0.18728948
-0.027388275 -0.027490839 0.10968411
-0.04428184 -0.048157483 0.19214082
-0.0439533 -0.048703566 0.19431973
-0.03596282 -0.045924842 0.18323314
-0.023201406 -0.033249289 0.13265944
-0.017982483 -0.030198753 0.12048841
-0.015085757 -0.027715638 0.11058104
0.05537349 -0.082015738 0.32723022
0.056070089 -0.082011506 0.32721341
0.062526643 -0.081313148 0.32442725
0.061530054 -0.076618269 0.3056953
0.064684331 -0.076485083 0.30516386
0.07123965 -0.080970556 0.32306015
0.10052603 -0.085937068 0.34287572
0.11764914 -0.082035705 0.32730997
0.1174733 -0.081428826 0.32488859
0.1354574 -0.080154553 0.31980455
