# .PCD v0.7 - Point Cloud Data file format
VERSION 0.7
FIELDS x y z
SIZE 4 4 4
TYPE F F F
COUNT 1 1 1
WIDTH 1389
HEIGHT 1
VIEWPOINT 0 0 0 1 0 0 0
POINTS 1389
DATA ascii
0.11677529 0.025719373 0.22697453
-0.17701152 0.0085014896 0.32148889
-0.1670365 0.0086731482 0.31259012
-0.1290406 0.014479394 0.34742239
-0.12698661 0.014403024 0.34409916
-0.12510535 0.014482504 0.34304798
-0.12155163 0.014658809 0.34141365
-0.096920878 0.014051405 0.30568042
0.027585389 0.046649307 0.60086298
0.032544319 0.04707133 0.60093069
0.095735162 0.030445945 0.30825958
0.096911594 0.028479192 0.28070346
0.095959291 0.027966859 0.2749376
0.099962212 0.027835464 0.26869446
0.10258136 0.026178859 0.24365813
0.10319103 0.026017843 0.24082567
0.10345916 0.025931103 0.23936675
0.10619707 0.024984341 0.22366668
0.10665044 0.024713326 0.21954277
0.10553601 0.024212833 0.21411738
0.12010012 0.026397595 0.22692218
0.10674627 0.021348309 0.17454679
0.10683768 0.021329897 0.17419793
0.10742138 0.021410303 0.17461543
-0.12746681 0.0057637314 0.22371443
-0.17821202 0.0088074915 0.31869578
-0.16993476 0.0098923407 0.32376534
-0.16575019 0.010449273 0.326437
-0.16535294 0.010527142 0.32701573
-0.12778571 0.014996644 0.34411144
-0.12194055 0.015645064 0.34615961
-0.11589467 0.015810711 0.34171343
-0.094681405 0.014740459 0.30463508
-0.085935965 0.014756912 0.29530016
0.022488059 0.047276624 0.59974957
0.06067273 0.047715425 0.56376106
0.064263113 0.046559129 0.54480749
0.077454016 0.044762347 0.50704354
0.077473328 0.044253387 0.50040495
0.088248521 0.045448788 0.50418264
0.10448717 0.04718449 0.50902033
0.10309285 0.032675695 0.32189468
0.10016254 0.02828254 0.26797339
0.10308569 0.026672155 0.24384272
0.10309264 0.026591877 0.24279161
0.1033892 0.026587753 0.24241473
0.11781618 0.026711171 0.22826713
0.11949436 0.026727771 0.2266511
0.10636444 0.021613119 0.17448436
0.10870394 0.021825239 0.17468856
-0.17617281 0.0096873483 0.31987
-0.17100976 0.010372972 0.32307428
-0.16451317 0.011097518 0.32535222
-0.16384196 0.011263084 0.32674
-0.13354021 0.015708232 0.35088754
-0.12968194 0.015569299 0.3450219
-0.12701933 0.015703 0.34388712
-0.090120412 0.015364253 0.30035329
0.063278154 0.047656357 0.54674011
0.066160277 0.047589574 0.5428279
0.07123854 0.049129207 0.55695158
0.077308074 0.046218552 0.51358712
0.10167927 0.04763573 0.50564182
0.11666664 0.048460055 0.50015974
0.12313963 0.049477693 0.50617969
0.10514949 0.03364253 0.32450131
0.098542996 0.030149253 0.28722689
0.097341605 0.029651416 0.2821916
0.099255182 0.029169045 0.27403951
0.099934958 0.029035067 0.27161789
0.10035215 0.029047977 0.2713367
0.098645702 0.027720768 0.25632119
0.099580601 0.027888112 0.2574499
0.10551507 0.025555616 0.22156
0.10554162 0.021825034 0.17422344
0.10840378 0.022106858 0.17475264
-0.13034317 0.0063625467 0.22357747
-0.12817903 0.0065749171 0.22396384
-0.12722032 0.0066558183 0.22397101
-0.13015182 0.016274387 0.34604627
-0.12409561 0.016752955 0.34569168
-0.11933804 0.016919836 0.34282681
-0.1183398 0.017105049 0.34408554
-0.092818573 0.016045794 0.30452946
-0.088280506 0.015931666 0.2984148
0.055202305 0.048816752 0.55670422
0.076539487 0.045644362 0.49533287
0.077132583 0.045478418 0.49266502
0.11262602 0.049441725 0.50493258
0.097641639 0.029652471 0.27555391
0.098149739 0.028354324 0.25896171
0.10013753 0.028319705 0.2564736
0.10121042 0.028329803 0.2554858
0.10517517 0.02587002 0.22093631
0.11259823 0.026426243 0.22012773
0.10545731 0.022111654 0.17413211
-0.12744249 0.0074817962 0.2290311
-0.17262244 0.011296536 0.32078376
-0.172371 0.011587318 0.32404196
-0.17033911 0.011665571 0.32293522
-0.13114804 0.016895266 0.346533
-0.11952751 0.017752795 0.34515393
-0.11633075 0.017795058 0.34243569
-0.11401106 0.018128101 0.3441155
-0.087711394 0.016547954 0.29844472
0.061558664 0.050108921 0.55318743
0.062586389 0.050118122 0.55225968
0.12950455 0.05306191 0.52021736
0.099886537 0.033869471 0.31821117
0.10416012 0.034683 0.32372567
0.097727731 0.030437436 0.27891859
0.096623965 0.029602138 0.26994038
0.097412765 0.028504793 0.25588173
0.10074373 0.028663054 0.25442851
0.10748372 0.026364127 0.2198371
0.11186539 0.026839206 0.22115062
0.11145023 0.026232308 0.21423616
0.11481034 0.026781607 0.21747804
0.11339048 0.026091836 0.21057741
0.11822313 0.02703421 0.2170829
0.10795286 0.022084747 0.16764867
-0.12372649 0.0075714365 0.22128229
-0.18021852 0.011359538 0.32169822
-0.17533487 0.011771744 0.32175073
-0.17104344 0.012222397 0.3228403
-0.16841616 0.012795203 0.32701322
-0.16508107 0.012885233 0.32478884
-0.12742373 0.017696161 0.34446818
-0.1195977 0.018410383 0.34518573
-0.11827619 0.018386213 0.34359771
-0.096882746 0.016888525 0.30482459
0.10099135 0.035195261 0.32590377
0.099880278 0.034297168 0.31639725
0.099910572 0.032909073 0.29997644
0.097766526 0.030838372 0.27764112
0.1000393 0.029127482 0.25520125
0.11267994 0.027369529 0.22198406
0.11400385 0.027361372 0.22058274
0.11245301 0.026857635 0.21616487
0.11426023 0.026793094 0.21362035
-0.12552008 0.0078884903 0.221818
-0.1739935 0.012612522 0.32298496
0.055949721 0.051932305 0.55552793
0.062754348 0.051612925 0.54529363
0.12046547 0.052197374 0.49650487
0.097983532 0.033108953 0.2978301
0.099533729 0.033339452 0.2989983
0.10225818 0.033815183 0.30186793
0.10051107 0.032519717 0.28859714
0.093759589 0.029204767 0.25683379
0.098777838 0.029321659 0.25335419
0.10662626 0.027517185 0.22497612
0.10541301 0.026908347 0.21911675
0.10811104 0.0273156 0.22121945
0.11327505 0.027644644 0.22004913
0.11508497 0.027187286 0.21302828
0.11487524 0.027015882 0.21125226
0.11331324 0.026586011 0.2077934
-0.12475863 0.008464436 0.22284737
-0.17409578 0.013235387 0.32306716
-0.17296971 0.013263667 0.32232755
-0.17188887 0.013514496 0.32414332
-0.17296655 0.014162377 0.33247021
-0.15909415 0.014323067 0.32124642
-0.16697891 0.015112711 0.33756995
-0.13026422 0.018893385 0.34574291
-0.12901886 0.018885305 0.34447983
-0.12814988 0.01925966 0.34789014
-0.11212249 0.019745922 0.33831596
0.069100104 0.053808328 0.55250102
0.12821589 0.055501249 0.51605511
0.09965343 0.03540061 0.31600299
0.093989335 0.032414708 0.28762218
0.10455472 0.034856461 0.30525485
0.10545158 0.027313046 0.21926357
0.10671085 0.027569171 0.22097121
0.10815098 0.027724223 0.22136725
0.10695044 0.027198978 0.21656767
0.11154186 0.02794979 0.22072704
0.11213684 0.026614452 0.20509484
0.11215375 0.026559461 0.20445833
0.10659434 0.023495287 0.17509353
-0.17172907 0.012516888 0.30606243
-0.12563652 0.019712875 0.34321871
-0.1267986 0.020765562 0.35591429
0.060083766 0.054181684 0.55339819
0.061696872 0.052867576 0.53740138
0.10237945 0.034982793 0.30250478
0.099070184 0.032413736 0.27716684
0.09788309 0.031252541 0.2654314
0.10105214 0.030300723 0.25200838
0.1055343 0.027881695 0.22117417
0.10736109 0.027841283 0.21905006
0.11108153 0.02815724 0.21912378
0.11164873 0.02823177 0.21942593
0.11514149 0.028223019 0.21612132
0.10661528 0.02380635 0.17516783
0.10740597 0.023849566 0.17491989
-0.18149969 0.013797985 0.32229653
-0.17852466 0.013910221 0.3208383
-0.17314439 0.014734188 0.32491806
-0.16800444 0.01501079 0.32329479
-0.16658224 0.015364555 0.3258442
-0.13135298 0.020182285 0.34631428
-0.12629245 0.021537701 0.35642806
-0.11591245 0.021111004 0.34249631
-0.1147388 0.021094428 0.34126362
-0.093318433 0.01952927 0.30511281
-0.086418569 0.019401874 0.29754162
0.12694852 0.057299439 0.51579338
0.097181313 0.034486309 0.29584169
0.10191759 0.034615371 0.29298604
0.1007145 0.034052759 0.2879836
0.10164636 0.031168021 0.25595412
0.1011976 0.030172369 0.24559237
0.10721119 0.028046994 0.21721217
0.10990357 0.028462073 0.21928404
0.1114234 0.028567713 0.21906115
0.11201345 0.028435381 0.21710169
0.11339142 0.027654553 0.20742244
-0.12832996 0.0095266616 0.22378351
-0.13108601 0.010167953 0.23299424
-0.1784725 0.014406603 0.3194792
-0.17038128 0.015473466 0.32367423
-0.16101772 0.016085437 0.32193464
-0.13211212 0.020774215 0.34621266
0.066468701 0.055740077 0.54217058
0.10459457 0.038490739 0.32603434
0.099474534 0.036222041 0.30650392
0.098427191 0.035496801 0.29974347
0.10057502 0.035786785 0.30092844
0.10041412 0.033762366 0.27963218
0.097217172 0.031028757 0.25349045
0.10180656 0.031130627 0.25053969
0.10653452 0.029036319 0.22421081
0.10643704 0.028848218 0.22230509
0.10792872 0.028860928 0.22113022
0.11002816 0.029272093 0.2236415
0.11015356 0.028998362 0.22063205
0.1114084 0.02903126 0.2198796
0.11067063 0.027728062 0.20672476
0.11479526 0.028705295 0.21345401
0.11452821 0.027991083 0.20612484
0.11352018 0.027680565 0.20372193
0.10951843 0.026404342 0.19371939
0.10758268 0.024502302 0.17527722
-0.1615108 0.016744392 0.3227568
-0.12622283 0.022669455 0.35392743
-0.12535644 0.022713162 0.35363677
-0.095156722 0.020480156 0.3045297
-0.090019025 0.020526532 0.30059662
-0.08284387 0.020267613 0.29174858
0.054976322 0.052427188 0.50706297
0.098017707 0.036073796 0.30041528
0.098853528 0.033187937 0.26975301
0.10917492 0.02936369 0.22120796
0.11228377 0.029434476 0.21927193
0.10964151 0.026777992 0.19397928
0.10706925 0.026030114 0.18842705
-0.12840089 0.010523354 0.22532386
-0.17845914 0.0152811 0.3157948
-0.16873513 0.016797962 0.3230468
-0.16295338 0.017373584 0.3240405
-0.16028401 0.017360106 0.32166067
-0.16833596 0.018321291 0.33820528
-0.09601108 0.020849677 0.30311978
-0.093715347 0.021117648 0.30391425
-0.090077609 0.021094473 0.30062187
-0.087801099 0.021166766 0.29944357
-0.0868541 0.021146979 0.29844496
-0.079479136 0.020204129 0.28265589
0.042235237 0.050785158 0.49136072
0.048394747 0.052524544 0.50387347
0.049827605 0.052002683 0.49736136
0.056652695 0.053242933 0.504237
0.061515525 0.05342222 0.50197244
0.10223143 0.035591442 0.28639734
0.1005023 0.032444336 0.2558437
0.10325913 0.032286275 0.25191805
0.10637022 0.029467136 0.2206309
0.10785092 0.029636959 0.2211121
0.11111087 0.029897423 0.22102125
0.10914087 0.028836899 0.21189156
0.11664283 0.029949153 0.21689704
0.1160868 0.029664142 0.21446517
0.11647673 0.029353246 0.21097626
0.11323143 0.028206501 0.20204151
0.11276086 0.028025722 0.20059745
0.11163387 0.0276812 0.19804171
0.10766758 0.026512286 0.18948755
0.10739965 0.025121601 0.17556895
0.10813552 0.025149599 0.17523438
-0.12802288 0.010915984 0.22465524
-0.17712408 0.016116323 0.31693646
-0.17684883 0.016929297 0.32481769
-0.16876686 0.017414611 0.32300502
-0.13263473 0.022809079 0.34706259
-0.12571101 0.023128228 0.34454599
-0.089824192 0.021788223 0.30164155
0.0099419681 0.049292531 0.49382249
0.043204129 0.051847856 0.49192703
0.057544656 0.053303204 0.49463734
0.057852317 0.052716348 0.48853123
0.061443813 0.052702196 0.48543444
0.072230317 0.054249037 0.4919818
0.10270227 0.039781306 0.32261077
0.097159237 0.036865789 0.29809764
0.099602677 0.037278656 0.30020282
0.10090504 0.03490964 0.2755051
0.097908072 0.033047296 0.25939903
0.10623784 0.033828117 0.26032966
0.10314729 0.032597695 0.25060284
0.10661236 0.030018501 0.22202671
0.11414228 0.028863383 0.20430985
0.10958171 0.027093859 0.19041623
0.11012164 0.027170457 0.19073518
-0.16672793 0.018471664 0.32560164
-0.13023207 0.023614075 0.34648535
-0.12866357 0.023913311 0.34814677
-0.12024856 0.02433865 0.34552357
-0.089418709 0.022250121 0.30023307
0.015006998 0.050924141 0.49655771
0.036230225 0.050946165 0.47966102
0.037281107 0.051132772 0.48063961
0.042893123 0.05246583 0.48915547
0.050993718 0.053256817 0.49036199
0.060330786 0.053482875 0.48504588
0.06377361 0.053372636 0.48119187
0.067243963 0.053336143 0.47803697
0.08227212 0.056731515 0.4991366
0.093642473 0.057823893 0.50065553
0.10231648 0.040638782 0.32553795
0.10086256 0.037971992 0.30061951
0.099647105 0.03347509 0.25760642
0.10140224 0.033690434 0.25829747
0.10840604 0.035528246 0.27062976
0.11050154 0.035706464 0.27068365
0.10993571 0.029892417 0.21425976
0.10551059 0.027562527 0.19503455
0.10838801 0.025874542 0.17620078
-0.16842651 0.018605301 0.32219523
-0.16681336 0.018697914 0.32181025
-0.090683177 0.022901382 0.30201542
0.01073768 0.050838321 0.49008974
0.025040563 0.052489121 0.49463728
0.027989754 0.052539937 0.49279487
0.033607796 0.052286018 0.48591822
0.043673553 0.053283162 0.4875389
0.058855783 0.053912483 0.48158443
0.064732589 0.054404639 0.48166811
0.10410365 0.059347108 0.4980101
0.10214479 0.036533389 0.28053856
0.1075438 0.030161809 0.21510337
0.10827997 0.029738368 0.2104568
0.11070272 0.029952677 0.21060005
0.11368299 0.029337365 0.20233777
0.10701776 0.026002983 0.17559317
-0.17657006 0.017872225 0.31573296
-0.17730837 0.018443678 0.32169092
-0.17313096 0.019320183 0.32671556
-0.16585499 0.020306455 0.33037612
-0.090499945 0.023413686 0.30129886
-0.085605808 0.023448 0.29783288
0.020595659 0.052174531 0.48631057
0.02485398 0.053159915 0.49229836
0.035818312 0.052335836 0.47604039
0.054110769 0.054653767 0.48371908
0.068426788 0.055511381 0.48071402
0.083383396 0.059531897 0.50702083
0.098118082 0.060398929 0.5037809
0.1198902 0.061964877 0.50167763
0.13359046 0.06417162 0.51186424
0.095885403 0.040000334 0.31326854
0.099388592 0.039065659 0.30174705
0.11515597 0.038555115 0.28472462
0.10975155 0.036451511 0.26908424
0.1046728 0.034245797 0.25223053
0.11041061 0.032258812 0.22906111
0.10625762 0.03017856 0.21267293
0.10454223 0.029446611 0.20710362
0.11116999 0.030459955 0.2115199
0.11130535 0.028490223 0.19285198
0.11161147 0.028445119 0.19219033
0.10663853 0.026269523 0.1755379
0.10817544 0.026387602 0.17546046
-0.12647882 0.012792946 0.2250399
-0.17851499 0.018792702 0.32008171
-0.17716482 0.019170513 0.32255241
-0.17305897 0.019662321 0.32398608
-0.16655368 0.02044357 0.32627568
-0.12461755 0.026106978 0.34684148
-0.12538476 0.026470831 0.35079116
-0.11703368 0.026674259 0.3463318
-0.1131492 0.026706858 0.34368384
0.016367164 0.052149579 0.48078895
0.038720269 0.053561855 0.47688422
0.095884703 0.040166412 0.30950406
0.1029985 0.037579939 0.28016561
0.098238878 0.034133397 0.25188494
0.1101251 0.036548 0.26520434
0.10047888 0.032280173 0.23303244
0.10843795 0.031808738 0.22262549
0.10720406 0.031092163 0.21693091
0.10376785 0.029754035 0.20715715
0.10364898 0.029481161 0.20472199
0.10360666 0.02923633 0.20248778
0.1081756 0.029997898 0.20606628
0.11358366 0.030170979 0.20356162
-0.1345598 0.013284193 0.23163782
-0.12874515 0.013086679 0.22551119
-0.17283693 0.020252733 0.32349804
-0.1678552 0.021218628 0.32856807
-0.09131223 0.024516113 0.30152971
-0.091458417 0.024767468 0.30392388
-0.087719575 0.02466704 0.30022517
0.00045879866 0.051612929 0.47950184
0.0093299402 0.052159172 0.47785985
0.019091427 0.05276629 0.47610766
0.030828644 0.053784762 0.47662419
0.062441759 0.056844756 0.48089385
0.064922072 0.056676842 0.47751978
0.077583924 0.061349608 0.51056707
0.078529507 0.061362147 0.50997692
0.099662282 0.062804796 0.50735027
0.11691302 0.063691251 0.50255924
0.11728123 0.063420616 0.49982449
0.1350013 0.066002756 0.51009834
0.097029679 0.039414022 0.29667133
0.099439599 0.035301741 0.25749284
0.10706529 0.036781285 0.26526254
0.11308398 0.037913356 0.27107048
0.10121992 0.033174541 0.23682833
0.10089333 0.032953486 0.23506308
0.10442236 0.030401915 0.20923775
0.10618433 0.029800382 0.20245695
0.1063481 0.029473841 0.19936626
0.107136 0.029621603 0.20012319
0.11765279 0.031567555 0.2099794
0.1071851 0.026969878 0.17598039
0.10742839 0.026976893 0.17586315
0.1086491 0.027014438 0.17529526
-0.13337243 0.013871566 0.23207237
-0.17761914 0.02044633 0.32314095
-0.1742305 0.020887775 0.32460824
-0.16598389 0.021901974 0.32764038
-0.16549161 0.021987991 0.32804841
-0.12721497 0.027945803 0.35329333
-0.12199804 0.027939904 0.34942761
-0.094906375 0.025125107 0.30448368
-0.089371622 0.025218127 0.30126977
-0.085849799 0.025155265 0.29813427
-0.084993891 0.025143117 0.29740012
-0.083867319 0.025053913 0.29577994
0.0043211267 0.05207951 0.47273767
0.024800923 0.053964116 0.47460532
0.046551839 0.056251142 0.47913763
0.051664751 0.056924224 0.48141414
0.062383443 0.057761718 0.48106095
0.079275079 0.062231939 0.50864625
0.083013691 0.06299372 0.51271832
0.084687747 0.062855549 0.5102607
0.086253539 0.061973542 0.50123841
0.098776735 0.063810833 0.50849628
0.10246929 0.063886628 0.50647491
0.10461497 0.064120211 0.50699437
0.11053544 0.064503096 0.50608659
0.11930334 0.064566739 0.50024778
0.12336025 0.065380856 0.50455528
0.10295507 0.043319792 0.32240376
0.098182127 0.040258899 0.29854903
0.10066574 0.040902976 0.30248699
0.10193665 0.037741501 0.27331805
0.10130239 0.037348419 0.27027044
0.09923584 0.035562839 0.25583112
0.09832862 0.03495919 0.25110206
0.097861335 0.034524605 0.24756123
0.11642349 0.040287193 0.28547123
0.10705182 0.036075052 0.25469449
0.1082456 0.032370646 0.2207313
0.10331317 0.029640688 0.19995043
0.11358389 0.030610913 0.20110996
0.10946424 0.028335076 0.18379213
-0.13831583 0.013630125 0.2296167
-0.13050674 0.013158206 0.21987151
-0.13055696 0.014294497 0.22988343
-0.18085399 0.021993617 0.33356178
-0.16444133 0.02159314 0.3182734
-0.16641408 0.022729164 0.32966176
-0.13042332 0.026519224 0.33712143
-0.11827461 0.028662922 0.34722993
-0.093678758 0.025806403 0.30450606
0.0091273002 0.053543806 0.47429693
0.031472106 0.055309378 0.47377023
0.050302874 0.05737637 0.47841123
0.090168677 0.064527161 0.51259917
0.097867027 0.064808093 0.50954336
0.098805591 0.064832188 0.50908166
0.10981877 0.065593876 0.50787014
0.11076514 0.065102153 0.5028736
0.11675934 0.066061936 0.50700098
0.094851099 0.041898277 0.31055775
0.10502085 0.044828203 0.32898763
0.09945704 0.041160092 0.30077291
0.10282232 0.041777298 0.30377832
0.098845154 0.035611831 0.25249708
0.11060679 0.038460746 0.26907423
0.10207019 0.03421415 0.23791231
0.1014233 0.03376323 0.23441654
0.10135728 0.033183809 0.2293772
0.10776535 0.032715164 0.2206656
0.11381835 0.031252425 0.20348112
0.11448099 0.031216836 0.20269322
0.11209464 0.030347433 0.19677167
0.11173788 0.030112037 0.19496091
0.10930318 0.027797453 0.17638499
0.10808238 0.026895329 0.1693406
-0.13814658 0.015045325 0.23793346
-0.13227934 0.014906554 0.23260327
-0.17767395 0.02168031 0.3230457
-0.16887784 0.022324625 0.32241294
-0.086468942 0.02642661 0.29978871
0.0031726607 0.056875385 0.49951214
0.025645226 0.055894941 0.47522131
0.027499834 0.055842441 0.47346184
0.029339727 0.055790808 0.47172138
0.037772302 0.056104939 0.46849391
0.040061858 0.056842126 0.47324583
0.058434855 0.058411766 0.47385636
0.066785604 0.058843099 0.47169986
0.079868115 0.063988566 0.50690502
0.092260301 0.06572745 0.51318854
0.094250679 0.065837122 0.51273382
0.11872331 0.067176081 0.50705773
0.11783202 0.066164628 0.49895352
0.097738847 0.043114923 0.31412777
0.099523641 0.042374708 0.3064799
0.10056049 0.038382679 0.27128881
0.11982299 0.04180209 0.28724226
0.10118924 0.03343505 0.22813463
0.10689277 0.035237659 0.23967949
0.10416253 0.031192362 0.20668149
0.1040369 0.031069146 0.205706
0.10193941 0.030106539 0.19887283
0.10237218 0.030155811 0.19899417
0.11071316 0.029903859 0.19094521
0.11278411 0.0301344 0.19147705
0.10870864 0.028066205 0.17649338
0.10819659 0.027167588 0.16909599
-0.13617033 0.015570706 0.23717128
-0.17780475 0.022167929 0.32197407
-0.17691246 0.022630999 0.32528841
-0.17553896 0.022898292 0.32660708
-0.1668462 0.023724323 0.32760939
-0.1664229 0.02413528 0.33080542
-0.16817898 0.024863904 0.33820543
-0.12113016 0.029688923 0.34663188
-0.096297719 0.026952999 0.30622986
-0.091601744 0.027042152 0.30373949
0.0041212034 0.05800882 0.50044364
0.00798041 0.055085193 0.47295409
0.044949312 0.059615254 0.48584637
0.055467412 0.060081854 0.48253301
0.058828287 0.05885715 0.46981174
0.085428841 0.065033168 0.50384927
0.092026167 0.06589219 0.50657952
0.09452191 0.066384606 0.50903434
0.099101841 0.067047931 0.51149815
0.099297911 0.066556893 0.50719339
0.10011669 0.066501476 0.50615638
0.10112879 0.065979682 0.50102675
0.10461664 0.067111701 0.5082261
0.12035303 0.068096951 0.50570756
0.12326222 0.068764523 0.50936264
0.098344371 0.043985378 0.31622261
0.10017555 0.039231725 0.27459806
0.1000292 0.039005883 0.27278262
0.098150752 0.035062689 0.24060465
0.10218379 0.034765862 0.23529471
0.10235401 0.034247383 0.23077522
0.10378111 0.031621259 0.20749272
0.10476714 0.031750079 0.20790465
0.10512758 0.03085495 0.20005593
0.11036693 0.030214865 0.19099842
0.10657738 0.028103314 0.17569256
-0.13686457 0.015799483 0.2357738
-0.13634066 0.01593639 0.23656204
-0.17618506 0.02360044 0.32763973
-0.16751654 0.023970116 0.32483843
-0.16735478 0.025384055 0.33653682
-0.13063361 0.029305352 0.34434146
-0.095778808 0.027604356 0.30645701
-0.08926405 0.027634688 0.30228397
0.013848146 0.057054348 0.47794616
0.018884337 0.057929911 0.48183787
0.025021309 0.058971412 0.48636669
0.028465865 0.058047883 0.47631449
0.035747301 0.059446298 0.48304701
0.048911534 0.059742179 0.47657511
0.054453153 0.060958046 0.48296475
0.060538024 0.060689073 0.47658473
0.091695271 0.067338526 0.51095438
0.098743036 0.067170277 0.5047611
0.10222536 0.067107461 0.50187027
0.10414189 0.067794926 0.50631046
0.10518511 0.067893773 0.50642788
0.10766215 0.068345547 0.50851762
0.10962398 0.06845855 0.5081293
0.099188268 0.042948768 0.30216238
0.10006129 0.038864139 0.26745516
0.1002561 0.037113644 0.25270325
0.1049995 0.036558993 0.24484931
0.10539778 0.032410491 0.20992938
0.10586263 0.032286692 0.208581
0.10480834 0.031363055 0.20158257
0.10720866 0.031116975 0.19789666
0.10875028 0.031336881 0.19868542
0.1103262 0.030267783 0.18868652
0.10837951 0.029335832 0.18222511
-0.13705634 0.014862453 0.22450514
-0.13755228 0.015092134 0.22672366
-0.17808051 0.023279687 0.32106376
-0.1685165 0.024258781 0.32272694
-0.16926886 0.026476074 0.34145117
-0.12820506 0.032202139 0.36110061
-0.1200129 0.030705651 0.34333274
-0.12080202 0.031382915 0.34942654
-0.119656 0.031343345 0.3483361
-0.094219558 0.027965281 0.30359542
0.011722372 0.057233505 0.47341597
0.018762873 0.058676202 0.48057303
0.020925773 0.059478898 0.48572591
0.039227668 0.061613992 0.49105731
0.040208522 0.061658226 0.49076533
0.046049412 0.061901238 0.48886415
0.069382548 0.063341402 0.48512539
0.072774813 0.064823754 0.49504402
0.083720654 0.067155354 0.50689948
0.084599577 0.067118503 0.5060097
0.084989734 0.066687934 0.50221115
0.08981128 0.067609847 0.50656855
0.099449985 0.068031482 0.50360101
0.11060751 0.068387263 0.49907663
0.11367903 0.068672471 0.49937043
0.10027277 0.040646892 0.27799624
0.10098499 0.040411703 0.27558705
0.10346002 0.035241492 0.23144525
0.10408428 0.035226777 0.23090677
0.10523919 0.032114159 0.2045559
0.10399594 0.031308394 0.19876373
0.10689532 0.029182199 0.17935419
0.10716633 0.029193558 0.17926693
0.10645636 0.028749071 0.17608805
-0.13742846 0.015412846 0.22574063
-0.13564201 0.016444633 0.23291452
-0.13605842 0.01659085 0.23437046
-0.1696979 0.02472461 0.32223231
-0.12854177 0.031492777 0.34998044
-0.12593439 0.031350091 0.34711578
-0.12067803 0.03200094 0.34893155
-0.090248331 0.028795945 0.30304423
0.011689912 0.058447611 0.47602352
0.023575747 0.059867732 0.47971296
0.035103101 0.060339063 0.47596422
0.036753662 0.061663128 0.48559085
0.044805918 0.061111882 0.47585046
0.061877187 0.063111126 0.48082268
0.07288447 0.064244196 0.48276734
0.090081222 0.069566481 0.51453769
0.11500849 0.069934517 0.50116223
0.11743364 0.070892319 0.50731826
0.098152913 0.045688767 0.31609696
0.099445976 0.043984424 0.30146191
0.10196739 0.044467326 0.30371419
0.099749029 0.040945958 0.27668455
0.10103482 0.038053188 0.25244221
0.099707238 0.037117559 0.24574417
0.097269356 0.03552714 0.23447931
0.10376725 0.035653934 0.2312424
0.10696031 0.033666652 0.21307154
0.10636085 0.033103924 0.20891379
0.10176241 0.030730214 0.19272994
0.10918306 0.030338511 0.1846927
0.10825512 0.030010615 0.18264911
0.10732814 0.029363008 0.17801911
-0.13618007 0.017044263 0.23450056
-0.16680774 0.026526812 0.32976639
-0.16641414 0.027144603 0.33443317
-0.16783224 0.027540848 0.33850273
-0.12860207 0.031452149 0.34435204
-0.12942351 0.032115813 0.35016757
-0.11923402 0.032780636 0.34889093
-0.11793958 0.032952555 0.34942448
-0.084678493 0.029097848 0.29727805
0.0057847733 0.060194321 0.48657808
0.01259817 0.05947651 0.47646809
0.015490039 0.059491973 0.47472528
0.035364348 0.061883412 0.48095345
0.037619751 0.062568747 0.4849571
0.039353833 0.062303696 0.48172781
0.060191423 0.064237915 0.48369256
0.06629733 0.064021774 0.47803414
0.082764827 0.06836953 0.50203747
0.091157556 0.068538256 0.49796927
0.11179876 0.069433495 0.49178731
0.1013715 0.047086269 0.32054719
0.09899357 0.044566173 0.30201203
0.10043452 0.044782825 0.30280787
0.10176532 0.044947386 0.30326113
0.10243805 0.045032721 0.30350611
0.10141719 0.041619848 0.27698648
0.096663222 0.035993118 0.23524231
0.10501629 0.032958746 0.20569144
0.10385506 0.031976357 0.1986167
0.10255666 0.031320915 0.19423452
0.10815647 0.030509487 0.18416092
0.10691725 0.029755384 0.17895502
0.1073398 0.029363416 0.17556044
-0.17818327 0.025579 0.32455787
-0.17018093 0.02892202 0.34569988
-0.12608863 0.033934344 0.35704699
-0.11510377 0.033880088 0.34965652
-0.097055487 0.029988816 0.30769652
-0.089913361 0.030053336 0.30367345
-0.089166984 0.030071231 0.30334064
-0.085921884 0.029792389 0.29909483
-0.084415086 0.02955395 0.29626995
0.0037028145 0.062373005 0.49776271
0.0066965045 0.061005689 0.48514244
0.013572884 0.060895767 0.47991917
0.014531866 0.060826369 0.47876686
0.028058685 0.061389122 0.47460312
0.031236762 0.062212821 0.47904721
0.033335995 0.062661454 0.48123494
0.040129226 0.063065089 0.4800922
0.052966457 0.064246647 0.48121724
0.060741734 0.06482435 0.48081753
0.070408039 0.066410385 0.48712546
0.12472261 0.07200028 0.49652037
0.10011119 0.047335651 0.3187052
0.10135859 0.047686812 0.32066783
0.099989086 0.042081945 0.27758271
0.10425502 0.042422771 0.27754983
0.10005937 0.038015906 0.24565168
0.10658664 0.031935368 0.19382863
0.11024701 0.032564711 0.19644345
0.10945752 0.032250118 0.19447656
0.10692976 0.030074567 0.17901859
0.10719366 0.02982243 0.17687435
-0.16869022 0.027727783 0.33038801
-0.1663039 0.028037578 0.33129337
-0.16658427 0.028258301 0.33317304
-0.16732074 0.028555732 0.33593005
-0.11739984 0.03436463 0.34966552
-0.11601247 0.034513798 0.34995311
-0.095886052 0.030698821 0.30793288
0.030343816 0.06342037 0.48195606
0.037196729 0.063890837 0.48131645
0.041574843 0.063404545 0.47482967
0.044996865 0.064435564 0.48065943
0.045931321 0.064446598 0.48016143
0.051841952 0.064978249 0.48058191
0.099473014 0.047881503 0.31881803
0.10255311 0.04862025 0.32260311
0.10286954 0.046374239 0.30505776
0.099404648 0.041607324 0.27039737
0.1032561 0.036493085 0.22849241
0.10102877 0.035458297 0.22188836
0.10113023 0.035265435 0.22033499
0.10438208 0.032594875 0.19767947
0.10654674 0.0321084 0.19257149
0.10804237 0.032405425 0.1939339
0.10551511 0.030252075 0.17887656
0.10710957 0.030442042 0.17935021
0.10758172 0.02912695 0.16889681
-0.14237048 0.017986074 0.23525599
-0.17850868 0.02638272 0.32132405
-0.16655859 0.027332867 0.32122314
-0.16588941 0.027560987 0.3225489
-0.1678354 0.028387295 0.33003014
-0.12757556 0.034101672 0.34881631
-0.11816664 0.03495834 0.3495625
-0.11653563 0.035312884 0.35125983
0.0055418704 0.062943399 0.48662752
0.01163614 0.064067379 0.49144229
0.013609966 0.06392692 0.48916134
0.018207403 0.062524468 0.47566858
0.047005031 0.065683797 0.48204255
0.055012535 0.066517711 0.48347601
0.062876061 0.066153087 0.47587702
0.10347794 0.043126699 0.27574128
0.098851494 0.038009625 0.23963933
0.098905154 0.037749313 0.23762523
0.11229208 0.040742934 0.25219393
0.10687267 0.038482394 0.23831609
0.10448587 0.037357856 0.23122279
0.10326261 0.035411477 0.21716124
0.10534938 0.033802744 0.20363925
0.11514208 0.034182366 0.20052034
0.1078445 0.030903758 0.18004809
0.10724414 0.030393643 0.17653435
0.10817636 0.029527362 0.1693693
-0.17889357 0.027047411 0.32188228
-0.17856757 0.027318878 0.32372156
-0.1777994 0.027528392 0.32482865
-0.17511867 0.028620202 0.33139744
-0.11910702 0.035601452 0.34993663
-0.11620268 0.03586448 0.3501558
-0.08846163 0.031762946 0.30265272
0.0095420238 0.064945489 0.49232033
0.023358025 0.064946517 0.48398811
0.060137261 0.068163253 0.48590717
0.067926861 0.067747615 0.4780888
0.071050435 0.069107607 0.48640096
0.076573834 0.068393365 0.47771111
0.098031871 0.049161527 0.32054242
0.10097991 0.049321484 0.31996247
0.098461576 0.047067039 0.30457705
0.099342979 0.047015101 0.30365553
0.10249376 0.047579881 0.30598828
0.099249274 0.043308493 0.27591681
0.099036455 0.038669284 0.24125656
0.098585859 0.037506871 0.23281233
0.10159134 0.035546515 0.21629745
0.10597897 0.032949019 0.19417141
0.10612729 0.032262132 0.18893079
0.10195924 0.03038582 0.17737731
0.10581717 0.030973583 0.17945513
0.10796776 0.031050652 0.17873472
0.10765074 0.030890157 0.17772266
0.10784113 0.029790379 0.16936105
0.10847562 0.029846663 0.16940008
-0.17772673 0.028297517 0.32582939
-0.16698834 0.028615847 0.32180247
-0.16894957 0.029642291 0.33055368
-0.1666283 0.030335506 0.33429888
-0.12875725 0.035453279 0.34962431
-0.11775192 0.036409106 0.35015148
-0.11572924 0.036369696 0.34865746
-0.090875469 0.031036936 0.29447865
-0.092284717 0.03253508 0.30638865
-0.090523109 0.032479864 0.30493379
0.038237035 0.06723918 0.48534185
0.04464462 0.066946641 0.47937322
0.051953048 0.066888347 0.47460014
0.065783903 0.069334298 0.48446128
0.067205176 0.069890752 0.48772904
0.09441416 0.048155572 0.31092149
0.099225111 0.049840182 0.32051411
0.10093123 0.049903784 0.31997088
0.098277271 0.047551461 0.30416128
0.10305963 0.037177648 0.22464859
0.10250409 0.035597909 0.21330279
0.10690331 0.034860548 0.20523931
0.10533446 0.032592028 0.18940553
0.10568602 0.032381136 0.18763682
0.099845283 0.029911341 0.17285329
-0.17491958 0.029840548 0.33084139
-0.13076207 0.035860155 0.34887743
-0.12030495 0.036969669 0.35084641
-0.083858393 0.027697368 0.26197281
-0.097329348 0.032897849 0.30774227
-0.09350419 0.033236481 0.30797324
-0.091800064 0.033202577 0.30672869
-0.088574238 0.032906823 0.30268818
0.026531225 0.068045884 0.49140263
0.055213749 0.068590857 0.4785991
0.10183463 0.050703265 0.32100353
0.10067306 0.044001523 0.27285352
0.10214946 0.037007075 0.22102776
0.10495702 0.036748756 0.21750389
0.11313323 0.036327023 0.20964961
0.099190556 0.030014899 0.1718123
0.10824057 0.030434793 0.16957909
-0.1765601 0.029685168 0.32607719
-0.1777754 0.030406879 0.33196133
-0.17050405 0.032893643 0.34564054
-0.12718213 0.036849119 0.34911475
-0.12620263 0.038222231 0.35841516
-0.098058909 0.033699803 0.30972126
0.025019422 0.067571528 0.48220068
0.094131924 0.074226849 0.49022201
0.099038087 0.051242232 0.32226896
0.098814316 0.043863442 0.26938725
0.1033 0.041604016 0.25057214
0.10159305 0.040443502 0.24321738
0.10406435 0.037878372 0.22336605
0.10939274 0.035565477 0.20368139
0.105379 0.033707418 0.19264373
0.10444921 0.03331947 0.19039185
0.10271272 0.03163822 0.17931303
0.099921346 0.030544976 0.17306611
0.10859641 0.031693298 0.17632106
-0.1152933 0.018763341 0.20949137
-0.17805323 0.029856211 0.32367098
-0.17785577 0.029995259 0.32454395
-0.11669042 0.035550091 0.32922137
-0.11739195 0.03823743 0.34866038
-0.094500884 0.034430247 0.30870622
0.026119554 0.06913536 0.48621139
0.097390972 0.051545288 0.321172
0.10130949 0.051926315 0.32164922
0.097166464 0.048707951 0.30119619
0.10005868 0.049422454 0.3046189
0.10184091 0.040840972 0.24280664
0.10104819 0.040218011 0.23884217
0.10206532 0.037059031 0.21588294
0.10696752 0.03502854 0.19871733
0.101684 0.031554408 0.17709805
0.10818917 0.032600041 0.18081805
0.10832282 0.031991851 0.17643297
-0.135842 0.021283977 0.23581548
-0.1206803 0.019883346 0.21756011
-0.11777129 0.039001372 0.34954888
-0.086573347 0.034678739 0.30191705
0.10092564 0.052618314 0.32258922
0.095596746 0.04846213 0.29651776
0.10271199 0.050582033 0.30736008
0.099693984 0.039520781 0.23174015
0.10228997 0.038144007 0.22066806
0.1022343 0.037634071 0.21713509
0.10197312 0.036835045 0.21169673
0.10277756 0.032138702 0.17842576
0.10479955 0.032393932 0.17908017
0.10730605 0.032797094 0.18049772
0.10750476 0.032268643 0.17669369
0.10809294 0.032375842 0.17711425
0.10873377 0.032427069 0.17711405
0.10903957 0.032448269 0.17709161
-0.13568504 0.02135127 0.2330935
-0.13670076 0.022213968 0.23960038
-0.11582457 0.01983997 0.21174678
-0.17695682 0.031781606 0.32771575
-0.16725859 0.032252971 0.32563043
-0.16821298 0.033002965 0.33132687
-0.11017736 0.034553457 0.31009209
-0.10898027 0.035995957 0.319379
0.026750732 0.070424899 0.48210421
0.099929221 0.053276792 0.32360816
0.10183948 0.053147282 0.32166463
0.10221358 0.050909352 0.30602801
0.1009694 0.041064877 0.23883311
0.10238321 0.037843432 0.21584365
0.10184234 0.036716118 0.20836814
0.10724442 0.038351856 0.2166748
0.1018371 0.033817835 0.18838716
0.10500451 0.034435686 0.19090484
0.10319565 0.033153091 0.18305615
0.10367299 0.03250749 0.178342
0.10416657 0.032587104 0.17862003
0.10524163 0.032773774 0.17931493
-0.11494437 0.020196809 0.2109734
-0.17547144 0.03124889 0.31897736
-0.1758877 0.031495985 0.32088348
-0.17724197 0.032450918 0.32811487
-0.16655271 0.034499723 0.33626089
-0.11239491 0.033826672 0.30232713
-0.12137377 0.037708845 0.33360741
0.097400248 0.050280057 0.30056056
0.098145604 0.038754743 0.22174016
0.10580727 0.039539535 0.22292736
0.10233195 0.037737921 0.21255241
0.10980054 0.039448049 0.22014007
0.10208502 0.034238972 0.18888007
0.10696295 0.035344724 0.19376001
0.10526126 0.03424577 0.18720475
0.10402241 0.032935634 0.17896242
0.10644003 0.033316948 0.18024585
0.10762045 0.033457711 0.18056405
-0.11723167 0.020746926 0.21321043
-0.16195251 0.034602046 0.33013451
-0.090930276 0.026630392 0.23866968
-0.093316205 0.028423315 0.25198373
-0.079368681 0.028363673 0.24413329
-0.078264043 0.028203821 0.24246931
0.097738646 0.053888068 0.32092968
0.099258564 0.05157445 0.30458137
0.10334326 0.038750757 0.21628946
0.10239292 0.037448157 0.20805053
0.10747111 0.035957012 0.19532505
0.10744401 0.035487946 0.19218957
0.10395122 0.033471424 0.18051463
-0.11514474 0.021355385 0.2134719
-0.17534514 0.032430686 0.31857547
-0.17734832 0.033522103 0.32686409
-0.17535962 0.034291953 0.33092001
-0.17033264 0.033914033 0.3257679
-0.16843498 0.033740748 0.32362089
-0.16730297 0.034100037 0.32540682
-0.10528829 0.025222851 0.23391764
-0.097795181 0.024101119 0.22253683
-0.099281512 0.02753721 0.24609613
-0.094362982 0.0295936 0.25713584
-0.077974334 0.027506394 0.23467404
-0.075117663 0.027357398 0.23218209
-0.094344474 0.037186805 0.30745745
-0.093051955 0.037292015 0.3074747
-0.086419135 0.037116051 0.30281606
0.098838285 0.054819021 0.32262862
0.10015425 0.054949623 0.32280207
0.10184433 0.055288106 0.32415554
0.097969137 0.051727861 0.30259722
0.098177493 0.045960519 0.2642594
0.098824419 0.046067372 0.26462683
0.10104945 0.041797347 0.23515241
0.099607982 0.040310211 0.22605422
0.10661832 0.040537678 0.22387156
0.10346826 0.03405017 0.1825278
0.10348807 0.033638511 0.17978926
0.10393305 0.033703391 0.17998476
0.10728454 0.034068361 0.18063967
0.10821291 0.032438956 0.16935037
-0.11711618 0.021287056 0.2114055
-0.1167927 0.022163589 0.21697393
-0.17504801 0.032797918 0.31679705
-0.17597057 0.033145435 0.31955022
-0.10419632 0.027161391 0.24314243
-0.10297805 0.027538506 0.24497761
-0.10150293 0.027508676 0.24401732
-0.10111447 0.027935389 0.24660765
-0.10043115 0.027934399 0.24624637
-0.09536057 0.027649136 0.24174921
-0.093816876 0.02758492 0.24052717
-0.088459946 0.029696053 0.25156218
-0.082102381 0.028277956 0.2389828
-0.076860905 0.027758887 0.23286577
-0.07898663 0.029552815 0.24570832
-0.095755532 0.037393674 0.3057214
-0.095408097 0.037556548 0.30660659
0.10232953 0.056179132 0.3258543
0.10127445 0.053271245 0.30737239
0.10261969 0.053445887 0.30781662
0.099748142 0.047853287 0.2727097
0.09945868 0.047284868 0.26913968
0.096467815 0.04522638 0.25722149
0.1042778 0.043291479 0.2405065
0.099475101 0.039964832 0.22122903
0.10168612 0.037702948 0.20527992
0.1000541 0.036536247 0.19849195
-0.12387744 0.022265241 0.21860261
-0.17801958 0.034691386 0.32659948
-0.10601749 0.028239211 0.24806549
-0.096033484 0.028278401 0.24321061
-0.092345029 0.028918602 0.24546035
-0.086367913 0.028669957 0.24079537
-0.081759103 0.030986058 0.25340295
-0.094150499 0.038535006 0.30852211
-0.088159554 0.038621441 0.30601531
-0.086170912 0.038428016 0.30374816
0.10115921 0.053515412 0.30538696
0.10227723 0.042569086 0.23408355
0.099899866 0.041262515 0.22685708
0.099951893 0.04085017 0.22416592
0.10675365 0.036094025 0.18995336
0.10567498 0.035632186 0.18752103
0.10350107 0.034280945 0.17990184
0.10470843 0.03426769 0.17919837
0.10612272 0.034245662 0.17833203
-0.11529591 0.021744156 0.20830075
-0.11018245 0.021390626 0.20346448
-0.17695117 0.034349017 0.31984654
-0.17837267 0.035763875 0.32959351
-0.16891916 0.035665542 0.32419541
-0.16884144 0.037082702 0.33319995
-0.10927384 0.025750583 0.23082934
-0.1016991 0.026435159 0.23137572
-0.09194275 0.028479835 0.23950119
-0.090350695 0.028386666 0.23810425
-0.085153952 0.028330592 0.2351241
-0.083580963 0.028615493 0.23614858
-0.085675918 0.029701751 0.2441369
-0.077515312 0.0280084 0.22921327
-0.076337531 0.028416807 0.23122634
0.10128231 0.057136394 0.32488111
0.10205301 0.057264559 0.3253102
0.10423568 0.04415993 0.24058165
0.11676603 0.044950482 0.23930411
0.099671438 0.03699702 0.19717441
0.10535425 0.036226477 0.18938984
0.10787883 0.03344015 0.17033532
-0.13578066 0.024661988 0.23440483
-0.11607697 0.021697905 0.20591681
-0.11681022 0.022055317 0.208535
-0.17870615 0.03547702 0.32393506
-0.17864744 0.036045704 0.32748994
-0.17801841 0.036315799 0.32887954
-0.17640248 0.036793929 0.33108908
-0.12620239 0.028203109 0.25195938
-0.10795629 0.025582086 0.22635865
-0.10854243 0.026009494 0.22934423
-0.10811428 0.026061414 0.22945935
-0.10315812 0.029114451 0.24623659
-0.095737323 0.02908201 0.24233977
-0.089477204 0.028938588 0.23832017
-0.085029051 0.028717609 0.23471384
-0.078000635 0.027032021 0.22059169
-0.079885721 0.028622661 0.23155597
-0.075839259 0.028246989 0.22717427
-0.074854843 0.0291494 0.23237242
0.10060476 0.057682499 0.32491305
0.10277951 0.055005293 0.3069557
0.098021142 0.047229432 0.26031092
0.10300564 0.048628733 0.26665041
0.10118397 0.042956199 0.23180205
0.099640064 0.040964734 0.22001712
0.097065568 0.039212137 0.21025048
0.10412893 0.034962177 0.17994782
0.10430451 0.03459838 0.17756757
0.10487888 0.034708675 0.17797689
0.10693752 0.034901924 0.17817025
0.10794119 0.034829181 0.17721267
-0.13975048 0.025665641 0.23982075
-0.10924023 0.021731846 0.20035005
-0.17890967 0.036127731 0.32418761
-0.17919385 0.036771458 0.32833594
-0.10624122 0.026655242 0.22953518
-0.098415308 0.026607974 0.22539963
-0.10441487 0.029360067 0.24548167
-0.099156201 0.029565644 0.2441804
-0.096333757 0.029508814 0.24244119
-0.088910766 0.029391192 0.23806563
-0.082376622 0.029273095 0.23412304
-0.08012291 0.029122055 0.2320763
-0.075877309 0.028669685 0.22717538
-0.073893368 0.028578559 0.22563379
-0.096330598 0.039846111 0.30680925
-0.090449952 0.040283687 0.30664688
0.099686906 0.058085378 0.32416934
0.10054071 0.058265932 0.32487482
0.10130426 0.058391806 0.32528389
0.10070068 0.054998763 0.30445233
0.09905614 0.047606394 0.25922784
0.10056383 0.041904036 0.22297977
0.10816879 0.037229624 0.1901405
0.10669639 0.035219211 0.17834452
0.10756931 0.035263378 0.17819089
0.1086064 0.035281345 0.17779371
-0.11599008 0.02279081 0.20781165
-0.10863614 0.02268621 0.20360725
-0.17900048 0.037552703 0.32914343
-0.17599294 0.03775011 0.32890132
-0.17688526 0.038141537 0.33174151
-0.10908674 0.026980503 0.23024552
-0.10388462 0.030032281 0.24650185
-0.098603174 0.030042177 0.24400552
-0.096939065 0.029938506 0.24256173
-0.08220765 0.02963954 0.23358886
-0.080375113 0.0296288 0.23263517
-0.071618907 0.028561108 0.22182681
-0.078165449 0.03265623 0.25019133
-0.091671474 0.040707801 0.30626732
-0.088906348 0.040831555 0.30569005
-0.086702831 0.040527143 0.30275071
0.10097282 0.055731263 0.30541396
0.099041663 0.048717111 0.26319525
0.099988826 0.048138823 0.25917867
0.10131206 0.042634197 0.22467133
0.099489354 0.041277744 0.21720903
0.09833207 0.040648766 0.2138994
0.10769869 0.041692931 0.21578792
0.10103194 0.038479466 0.19924548
0.10678963 0.036987856 0.18728082
0.10886041 0.037247814 0.18787766
0.10262377 0.034990739 0.17701159
0.10688986 0.035600591 0.17869729
0.10756844 0.035661761 0.17874573
0.10847748 0.035634808 0.17813887
-0.11011718 0.02335741 0.20606275
-0.10511851 0.027379304 0.22812645
-0.081677161 0.03008616 0.23338254
-0.078977875 0.029974239 0.23141307
-0.07585308 0.029478878 0.22690797
-0.075758412 0.029655093 0.22793433
-0.072187454 0.028962946 0.22202028
-0.066778883 0.027328257 0.2094983
-0.097358115 0.041696347 0.31146011
-0.09368901 0.04146713 0.30831331
-0.092648074 0.041352767 0.30712074
0.09560369 0.054968439 0.29995659
0.10750391 0.042007536 0.21547446
0.1017406 0.038771123 0.1985524
0.11171571 0.041912612 0.21288565
0.10597444 0.036937986 0.18538502
0.10593987 0.035848547 0.17877777
0.10727075 0.03596181 0.17883089
0.1077567 0.036042448 0.17908821
0.10845765 0.036110919 0.17916991
-0.11433501 0.023239089 0.20500544
-0.1080589 0.022487156 0.19752894
-0.10925207 0.022956649 0.20091251
-0.10988852 0.02381368 0.20636192
-0.17381154 0.039361868 0.32992077
-0.10857505 0.027859814 0.23005362
-0.079044327 0.030203797 0.2302144
-0.073030479 0.03056046 0.22952268
-0.097421378 0.041966885 0.30955845
-0.097512215 0.042326346 0.31176093
-0.096483454 0.042224176 0.31066129
-0.089340732 0.04080778 0.29878336
0.10068531 0.043489043 0.22530259
0.10042571 0.0432215 0.22381729
0.0990358 0.040766172 0.20971967
0.10877542 0.042779211 0.2172235
0.10621888 0.041627634 0.21150902
0.10598652 0.036269333 0.17942357
0.10710455 0.03630783 0.17912774
-0.14547756 0.027413921 0.24199294
-0.14045209 0.027039602 0.23743129
-0.12276841 0.02438906 0.2134607
-0.1121018 0.023297949 0.20201781
-0.110063 0.023369282 0.20149234
-0.11449164 0.027529996 0.22826405
-0.11395629 0.02755696 0.22817528
-0.10870506 0.028314462 0.23023085
-0.079048939 0.030620443 0.23012646
-0.074241504 0.029902427 0.22362524
-0.074171193 0.031892702 0.23541331
-0.090107955 0.042350881 0.3049407
-0.089474611 0.043093752 0.30905834
0.1011068 0.052200072 0.27446204
0.10066114 0.042399775 0.21646415
0.10360962 0.040467918 0.20361885
0.10342287 0.039344348 0.19703281
0.10576717 0.036422085 0.17858636
0.10743553 0.035012875 0.1694406
-0.14751682 0.027963497 0.24343969
-0.14460903 0.027843535 0.24139941
-0.12727205 0.025519837 0.21979353
-0.11688144 0.024132887 0.20687833
-0.1100401 0.023856318 0.20211186
-0.10992734 0.024708027 0.20706111
-0.17981206 0.040634252 0.33266607
-0.17442736 0.040522847 0.32953849
-0.11377332 0.028706407 0.23230302
-0.081245251 0.031408805 0.23322906
-0.077157252 0.030762313 0.22755592
-0.076115094 0.030585699 0.2260409
-0.074150734 0.030269172 0.22327964
-0.073935069 0.032218598 0.23462678
-0.091245271 0.044472791 0.3145242
0.10241897 0.05830016 0.30675998
0.10065964 0.05271874 0.2747981
0.1029572 0.050941911 0.26331031
0.1019549 0.04380266 0.22185409
0.10374876 0.036379911 0.17744991
0.10487985 0.036693349 0.1787702
0.10533265 0.036674414 0.17845146
-0.14622024 0.028317221 0.24220134
-0.14109132 0.027908348 0.23750193
-0.13948637 0.027741151 0.23580348
-0.11644964 0.024428444 0.20612848
-0.11555948 0.02437303 0.20540275
-0.11022159 0.024514116 0.20380105
-0.11023871 0.025155699 0.20753394
-0.17408605 0.040845972 0.32756478
-0.076223791 0.033836693 0.24250422
-0.086700849 0.040599965 0.28651553
-0.07299716 0.035897613 0.25300476
-0.092662834 0.045706511 0.31886208
0.10191353 0.062519327 0.32823676
0.099227689 0.053198133 0.275345
0.10129232 0.052611817 0.27100524
0.10021532 0.051123347 0.26285294
0.10113958 0.051158894 0.26263991
0.098607197 0.041589536 0.2082382
0.097729646 0.040676177 0.20333481
0.1104736 0.043858457 0.21602915
0.10320289 0.040316865 0.19876695
0.10544664 0.0370318 0.1786802
-0.1115642 0.024423422 0.20167698
-0.1110028 0.024802245 0.20359989
-0.10919286 0.024543293 0.2013036
-0.18078247 0.042104814 0.33415785
-0.11305263 0.029223748 0.22989812
-0.080268174 0.031884495 0.23049434
-0.077109411 0.034139812 0.242026
-0.079302855 0.041249897 0.28382111
0.098705523 0.058791984 0.30482772
0.10017317 0.059054665 0.30567867
0.1018035 0.044243425 0.21992984
0.10092375 0.043119747 0.21387385
0.098980695 0.041992597 0.20827316
0.10951424 0.043598127 0.21277413
0.10161381 0.039016221 0.19001007
-0.14811102 0.029158443 0.2425539
-0.13609987 0.027819054 0.22964093
-0.12797625 0.026750447 0.21998362
-0.1120676 0.025150599 0.20386906
-0.11364205 0.029159293 0.22732161
-0.078874782 0.031771705 0.22678341
-0.073117197 0.031278033 0.22143549
0.10228454 0.063657179 0.32771021
0.10213164 0.060195215 0.3081246
0.098848388 0.051608089 0.26082918
0.10080726 0.043459002 0.21370237
0.10744341 0.036047377 0.16869505
-0.10910112 0.025389154 0.20175472
-0.11022273 0.026028523 0.20583402
-0.125888 0.03158918 0.24389452
-0.076816812 0.03488338 0.24096894
-0.072638407 0.034861751 0.23902388
0.098492339 0.061151318 0.31192815
0.097614117 0.059275985 0.3017818
0.099704891 0.052327801 0.26185656
0.10323855 0.053062208 0.26443776
0.10684936 0.047495175 0.23160347
0.10187852 0.044031456 0.21432576
0.098551564 0.041603845 0.20214795
0.10957013 0.044261623 0.21226034
-0.14817391 0.029792074 0.24094477
-0.13647647 0.029027395 0.23165385
-0.11119652 0.025204044 0.19951946
-0.11181585 0.026633056 0.2077235
-0.18265633 0.043747678 0.33332351
-0.18148479 0.044155113 0.33508113
-0.076473169 0.032307964 0.22400385
-0.074738942 0.03205891 0.22187282
-0.073483884 0.031773638 0.2197473
-0.073295116 0.032833029 0.22554961
-0.074870668 0.034980975 0.23815922
-0.074748315 0.037372619 0.25138986
-0.067922153 0.035520058 0.23815753
-0.067538202 0.035613429 0.23851049
-0.071045652 0.038566001 0.25642118
-0.072366692 0.039887916 0.26433319
0.09481366 0.062177401 0.31604961
0.10032885 0.064374708 0.32587594
0.093459532 0.058184307 0.2944558
0.10105013 0.055018347 0.27359882
0.10287657 0.055277117 0.27424845
0.099742904 0.042764489 0.20610297
0.10983226 0.0442295 0.20989004
0.1072363 0.036815442 0.16983016
0.10708247 0.036597058 0.16868389
-0.14680862 0.029974796 0.23883474
-0.14430764 0.029907146 0.2373976
-0.13318466 0.028367028 0.22419785
-0.18184885 0.044411957 0.33308694
-0.11258241 0.029983599 0.22430618
-0.10586975 0.030325638 0.22332685
-0.073134869 0.033405349 0.22630724
-0.074246198 0.035388518 0.23767778
-0.073539443 0.035594985 0.23851131
-0.071510129 0.03684485 0.2445149
0.10183725 0.06525398 0.32678792
0.096849382 0.060270928 0.30153161
0.1006827 0.056104649 0.27700669
0.10087547 0.043640394 0.20843634
0.1003757 0.042593978 0.20289907
0.10740069 0.037172422 0.1701169
-0.14858998 0.030344559 0.23911144
-0.14859983 0.030488653 0.23989923
-0.14483383 0.030169612 0.23658027
-0.11671706 0.025749763 0.20072073
-0.11709992 0.026458155 0.20473312
-0.11107525 0.025783043 0.19852825
-0.11068308 0.026729191 0.20350692
-0.18357675 0.045686178 0.33723927
-0.1098986 0.030179668 0.22193611
-0.10872887 0.030517427 0.22327998
-0.07529635 0.032632116 0.22071032
-0.075648718 0.035403904 0.23592782
-0.066483654 0.036214191 0.23647717
0.1017438 0.065820798 0.32665747
0.097629644 0.052890074 0.25808892
0.10023716 0.053621419 0.26096773
0.10166046 0.041095853 0.19227198
0.10214221 0.04094068 0.19122556
0.10181853 0.040463064 0.1887653
0.10740496 0.037389018 0.16970173
-0.12037537 0.026768604 0.20568456
-0.11853402 0.026504997 0.20350093
-0.11860756 0.026774919 0.20498358
-0.11690611 0.029122416 0.21690512
-0.1165401 0.030544212 0.22440241
-0.10470714 0.031325422 0.22368574
-0.10253935 0.031220082 0.22221796
-0.10269529 0.031613652 0.22439982
-0.075343654 0.035948016 0.23634799
-0.071985871 0.037660133 0.2441628
0.10173722 0.054462649 0.26234055
0.10135271 0.045510989 0.21434231
0.09873458 0.042472534 0.19908482
0.10171574 0.041465279 0.19242649
0.10259806 0.040329427 0.18594961
0.10149644 0.039671108 0.18286563
-0.11966049 0.026366204 0.20117715
-0.11619487 0.026127046 0.19848029
-0.11037402 0.026738996 0.19934706
-0.11227221 0.027849598 0.20604005
