# .PCD v0.7 - Point Cloud Data file format
VERSION 0.7
FIELDS x y z
SIZE 4 4 4
TYPE F F F
COUNT 1 1 1
WIDTH 1372
HEIGHT 1
VIEWPOINT 0 0 0 1 0 0 0
POINTS 1372
DATA ascii
-0.07994619 -0.010590667 0.2881082
0.099340625 -0.01814276 0.49354658
0.1055415 -0.01776604 0.48329756
0.11056328 -0.017418062 0.47383022
0.11397425 -0.017168872 0.46705785
0.14587353 -0.017281918 0.47012985
0.11700599 -0.0096667651 0.26297233
0.1312923 -0.010445831 0.28416067
0.14447665 -0.010842606 0.29495814
0.12260734 -0.0090434523 0.24601665
0.11479027 -0.0080197258 0.21816783
0.11434269 -0.0072253589 0.19655734
0.11654285 -0.0072055277 0.19601825
0.13933156 -0.0074149822 0.20171601
0.11635283 -0.0055869357 0.15198812
0.068430804 -0.01710351 0.49126187
0.097095639 -0.017159216 0.49286026
0.1006899 -0.016706884 0.47986755
0.10903792 -0.016887741 0.48506618
0.12011416 -0.016281141 0.46764314
0.1154603 -0.010102238 0.2901631
0.11704229 -0.0091583552 0.26305375
0.13213316 -0.0099565107 0.28598085
0.13725047 -0.0098848352 0.28392211
0.12134507 -0.0084769605 0.24348374
0.12902066 -0.0087869829 0.25239059
0.11667597 -0.0068568829 0.19695011
0.1175632 -0.0068594823 0.19702631
0.12542857 -0.0071394234 0.20506594
-0.072781891 -0.010009542 0.30450818
0.10113087 -0.016172403 0.49199244
0.1017376 -0.016101992 0.48985007
0.11269379 -0.015875453 0.48296124
0.11813619 -0.015639335 0.47577888
0.12566526 -0.015564243 0.4734951
0.12799272 -0.01560138 0.4746199
0.18306121 -0.017799463 0.5414902
0.13259339 -0.0094331717 0.28697672
0.1160934 -0.0064649358 0.19667648
0.11713846 -0.0064762998 0.19702007
0.12183066 -0.0065703313 0.19988231
0.11274448 -0.004965777 0.15107083
0.11609624 -0.0049849399 0.15165314
-0.10043688 -0.010104391 0.32672015
-0.0998028 -0.010111001 0.3269302
-0.07792262 -0.0088900756 0.28745833
0.09566541 -0.014856926 0.48038867
0.10969302 -0.015091708 0.48798013
0.11509975 -0.015116813 0.48879448
0.13080098 -0.014539625 0.47012928
0.14324653 -0.014682306 0.47474381
0.14718407 -0.014569854 0.4711079
0.11390161 -0.0080722384 0.26101032
0.13913696 -0.0087849032 0.28405699
0.11684797 -0.0067583947 0.21852776
0.11469841 -0.006075514 0.19644697
0.11552989 -0.0060972022 0.19714931
0.11684938 -0.0059920293 0.19374768
0.13709712 -0.0068839188 0.22258762
0.1312364 -0.0064333691 0.20801939
0.13297075 -0.006496354 0.2100566
0.13845986 -0.0065865233 0.21297529
0.14198162 -0.0067099677 0.21696576
0.14260641 -0.0065470836 0.21169762
0.11443891 -0.0047018793 0.15203491
-0.10493094 -0.0096252458 0.33210298
-0.1005815 -0.0096164811 0.33180439
-0.072278716 -0.0085354885 0.29450238
0.094107576 -0.01463893 0.50509208
0.093259782 -0.014181621 0.4893156
0.098311327 -0.014007373 0.48330083
0.12299969 -0.013651821 0.4710384
0.13071786 -0.014048595 0.48472512
0.1201998 -0.0076459763 0.263814
0.13636905 -0.0081399018 0.28085679
0.12288547 -0.0072710379 0.25087821
0.12147186 -0.0070641087 0.2437382
0.12008348 -0.0068946886 0.23789145
0.11412146 -0.0056857206 0.19617705
0.11881593 -0.0057300627 0.19770934
0.13329174 -0.0061650891 0.21271846
0.14399296 -0.0062148529 0.21443628
0.13858616 -0.0057614809 0.19879137
0.14188962 -0.0058096852 0.2004572
0.14482361 -0.0058766063 0.20276536
0.11525237 -0.0044125058 0.15225105
-0.15268661 -0.0082960278 0.3068254
-0.077944309 -0.0077744713 0.28753805
0.10023721 -0.017329527 0.64092433
0.094280779 -0.013526742 0.5002827
0.095202193 -0.013066314 0.48324883
0.099066183 -0.013031034 0.48194814
0.10457467 -0.013206322 0.48843113
0.13785066 -0.012712841 0.47018334
0.1415014 -0.012330475 0.45603848
0.17580503 -0.014519497 0.53700197
0.11608949 -0.0071230829 0.26344356
0.14028271 -0.0080601312 0.29810306
0.11869208 -0.006174596 0.22836648
0.11465798 -0.0053095943 0.19637789
0.11946134 -0.0053746589 0.19878335
0.14092873 -0.0061864802 0.22880855
0.13386311 -0.0058157756 0.21509777
0.13896561 -0.0054062996 0.19994871
0.13903378 -0.0053922618 0.1994334
0.14492591 -0.0054698046 0.20230336
0.14430468 -0.005430216 0.20083675
-0.10654133 -0.008293354 0.33049271
-0.1003335 -0.0081902603 0.32638386
-0.078068346 -0.0071147643 0.28352475
0.067751937 -0.012205322 0.48638797
0.1024828 -0.016006177 0.63784844
0.10530908 -0.012220697 0.48699999
0.11903885 -0.012134687 0.48357683
0.12431194 -0.012246991 0.48804727
0.12834504 -0.01194291 0.47592655
0.13004649 -0.011820135 0.47103572
0.13728161 -0.011836252 0.471681
0.14238088 -0.011757818 0.46855584
0.14139402 -0.011356884 0.45257491
0.14482044 -0.011553117 0.46039274
0.17840749 -0.013586311 0.54141623
0.17971663 -0.013424837 0.53497928
0.11628478 -0.0066218781 0.26388651
0.12113131 -0.0066713449 0.2658585
0.13420253 -0.0069974102 0.27885002
0.12238913 -0.0061100516 0.24349026
0.11781076 -0.00571142 0.22760679
0.11621012 -0.0055877524 0.22267541
0.11512773 -0.0054906756 0.21880926
0.11665883 -0.0054529444 0.21730565
0.1142548 -0.0049466887 0.19713059
0.11448894 -0.0049385927 0.19680868
0.14907248 -0.0056793331 0.22632304
0.13996938 -0.0052641383 0.20977969
0.13987061 -0.0051450017 0.20503415
0.14056247 -0.0050751092 0.20224647
0.1405962 -0.0050607743 0.20167471
0.14339092 -0.0049781809 0.19838494
0.1133135 -0.0038099899 0.15183318
-0.10721838 -0.007802844 0.33706245
-0.10029149 -0.0075525385 0.32624719
0.10215556 -0.014718701 0.63581187
0.099239208 -0.01106142 0.47782084
0.11957804 -0.011053398 0.47747532
0.13789672 -0.01073164 0.4635812
0.15493622 -0.011100637 0.47951847
0.11497848 -0.006315941 0.27283216
0.11649574 -0.0063670417 0.27503753
0.11909045 -0.0063799657 0.27560079
0.13474496 -0.0064526061 0.27873921
0.13624556 -0.0064672381 0.2793729
0.14352506 -0.0052310117 0.22596666
0.13848846 -0.004759145 0.20558438
0.14103295 -0.0047119809 0.20354925
0.14401712 -0.004695789 0.20285033
0.11267664 -0.0035051671 0.15141353
-0.16350664 -0.0069374708 0.32716343
0.095846847 -0.013360887 0.63007337
0.10133455 -0.010137741 0.47807011
0.10459518 -0.010156606 0.47896409
0.10946807 -0.010229247 0.48239261
0.13725887 -0.0099275438 0.46816486
0.14126346 -0.0096541382 0.45527196
0.14374207 -0.0096900128 0.45696485
0.14680284 -0.0098296497 0.46354496
0.17737401 -0.0112682 0.53138679
0.11870559 -0.0058252085 0.27470997
0.11441531 -0.0055597513 0.26218757
0.11552273 -0.0055861184 0.26343507
0.12267717 -0.0057094889 0.26925123
0.11880574 -0.0048471605 0.22858529
0.11619925 -0.0047214138 0.22265461
0.1144373 -0.0041868594 0.19744521
0.11441623 -0.0041706674 0.19668375
0.14510594 -0.0050305445 0.2372371
0.13861348 -0.0047393139 0.22349852
0.14389668 -0.0048530283 0.22886218
0.13726881 -0.0045520677 0.21467216
0.14175397 -0.0043652668 0.20586008
0.14246044 -0.0043067387 0.20310345
0.14481468 -0.004299311 0.20275287
0.14380781 -0.0042440509 0.20014524
0.14216675 -0.0041831457 0.19727468
0.14059889 -0.0041247658 0.19452207
0.14124674 -0.0041315989 0.19484219
0.11197077 -0.0031997499 0.15089837
0.1151847 -0.0032356987 0.15259257
-0.07732597 -0.0055380631 0.2875241
0.10359626 -0.012097179 0.62806857
0.11901391 -0.009153231 0.475223
0.12286341 -0.0091374097 0.47439888
0.13740134 -0.0090266671 0.46865061
0.15195766 -0.0091186929 0.47343212
0.11850316 -0.0053083315 0.27560467
0.1188923 -0.0050977631 0.26466894
0.12885156 -0.0052262582 0.27134684
0.11818378 -0.0043977248 0.22832741
0.118296 -0.0042273388 0.2194813
0.11811671 -0.0037990715 0.19724734
0.14380062 -0.0040097889 0.20818591
0.14363545 -0.0039928542 0.20730546
0.14384167 -0.0038905779 0.20199499
0.14233124 -0.0038153378 0.19809036
-0.16163544 -0.0056245187 0.32480803
-0.078486063 -0.0049746158 0.28727174
0.10534016 -0.010917698 0.63047177
0.097699866 -0.008405285 0.48539478
0.10092828 -0.0082453722 0.47615382
0.1042891 -0.0081896661 0.47293389
0.12412042 -0.0081642643 0.47147095
0.14328206 -0.008108113 0.46822813
0.1194936 -0.0047650128 0.27517238
0.11991176 -0.0045788805 0.26442206
0.13267319 -0.0049954872 0.28848407
0.13811766 -0.0051525775 0.29755655
0.13209595 -0.004752906 0.27447274
0.13110098 -0.0046550864 0.26882386
0.11438113 -0.0034300012 0.19807893
0.14591826 -0.0039916658 0.23051019
0.12118514 -0.0028861626 0.16667682
0.11519538 -0.0026425419 0.15260668
0.11628489 -0.0026449929 0.1527524
0.096732102 -0.0096397297 0.62708247
0.1156173 -0.0073475409 0.47797742
0.11831062 -0.0073880949 0.48061833
0.11966873 -0.0074085947 0.48195112
0.12436133 -0.007261605 0.47238603
0.13208802 -0.0072424421 0.47113553
0.13445745 -0.0071541299 0.4653953
0.14222321 -0.0072974055 0.47471499
0.14495495 -0.0071322932 0.46397281
0.13586622 -0.0044995556 0.29270625
0.11557206 -0.0034040792 0.22145285
0.14173184 -0.0032239633 0.2097338
0.14067774 -0.0031799185 0.20686546
0.14152841 -0.0031496887 0.20489645
0.14188811 -0.0031382504 0.2041537
0.11341611 -0.0023360848 0.15197074
0.11422034 -0.0023392043 0.15217663
0.11531904 -0.0023483401 0.15277053
-0.15866308 -0.0042996081 0.32021058
-0.10181461 -0.0044784616 0.33352074
-0.099473171 -0.0044376105 0.33047816
-0.078793973 -0.0038425224 0.28615999
0.046162538 -0.0082456693 0.61406243
0.047241636 -0.0082050413 0.61104423
0.097844586 -0.0084009031 0.62562585
0.14109801 -0.0064155431 0.47777629
0.17590064 -0.0071679447 0.53380907
0.11693786 -0.0035632497 0.26536876
0.11803611 -0.0030620447 0.22804219
0.11612127 -0.002939566 0.21891904
0.11799735 -0.0026459584 0.19704799
0.14038132 -0.0028618004 0.213128
0.14118183 -0.0027876 0.20760657
0.13695277 -0.0026789363 0.19950677
0.13888811 -0.0026587336 0.19801044
0.11889073 -0.0021828562 0.16256541
0.11316705 -0.0020419573 0.15207249
-0.10014681 -0.0038206854 0.3327162
0.056215938 -0.0069960733 0.60922569
0.097469985 -0.0071570263 0.62323034
0.10637636 -0.0072190459 0.62863159
0.17082205 -0.0060712062 0.52868438
0.1725191 -0.0060912604 0.53042746
0.11584311 -0.0033075965 0.2880308
0.13162118 -0.0031129229 0.27107868
0.12312924 -0.0027543993 0.23986299
0.11675212 -0.0026009481 0.22649683
0.11771023 -0.0026114951 0.22741264
0.14227347 -0.0024486107 0.21323302
0.14230345 -0.0024258085 0.21124797
0.1384671 -0.0023019186 0.20046447
0.14119565 -0.0022565366 0.19650981
0.11348604 -0.001746196 0.15206432
0.11614587 -0.0017568915 0.15299945
-0.15771419 -0.0030362715 0.31829548
-0.10921889 -0.0032535247 0.34105992
-0.10025305 -0.0031771704 0.33306944
-0.077759698 -0.0027581132 0.28913692
0.051512666 -0.005869179 0.61526036
0.10115211 -0.0059268163 0.62130123
0.15369327 -0.0046295361 0.48530239
0.11501645 -0.0025141954 0.26356506
0.11660492 -0.0025242225 0.26461321
0.13079473 -0.0026634131 0.27920893
0.14150311 -0.0020037803 0.21005987
0.14146194 -0.001996947 0.20933449
0.123197 -0.0016068567 0.16845345
0.11429073 -0.0014565992 0.15270531
-0.10549358 -0.0025530409 0.3361578
-0.072853081 -0.002294491 0.30210453
0.051147591 -0.0046397857 0.61089987
0.094775751 -0.0048687747 0.64104611
0.11875367 -0.0020871162 0.27482122
0.11738295 -0.0020132873 0.26509288
0.11865424 -0.0020156642 0.26540187
0.12881242 -0.002069439 0.2724908
0.13050519 -0.0020872648 0.27482894
0.12966625 -0.0020645368 0.27183881
0.13170445 -0.0019566901 0.2576406
0.11761435 -0.0016638996 0.21908543
0.11791907 -0.0016615972 0.21878193
0.11753317 -0.0014958904 0.19697595
0.14154047 -0.0016110161 0.21213451
0.14101715 -0.0015553102 0.20478994
0.14171132 -0.0015343648 0.20203553
0.14129877 -0.0015114881 0.19902132
0.12709711 -0.001323722 0.17429575
0.1144229 -0.0011610605 0.15288179
0.11552217 -0.0011655913 0.15347406
0.11582432 -0.0011652942 0.15343989
0.11623331 -0.0011628432 0.15311457
-0.15769169 -0.0018060612 0.31962872
-0.078146182 -0.0016419144 0.29057395
-0.075874753 -0.0017468644 0.30915466
0.052267853 -0.0034397312 0.60873991
0.1014094 -0.0035665922 0.63116729
0.11336588 -0.0036035809 0.63771713
0.24200591 -0.0037160327 0.65763879
0.24376911 -0.0037216032 0.65860522
0.12094235 -0.0015070317 0.26669469
0.12954912 -0.0014379564 0.25448841
0.11896377 -0.0012472192 0.2207202
0.11736944 -0.0011113709 0.19670157
0.14059262 -0.0012139441 0.21484315
0.14094342 -0.0012051797 0.21328932
0.14121522 -0.0011105539 0.19653699
-0.078830034 -0.001061087 0.286291
0.062592082 -0.0022072927 0.5955568
0.10240053 -0.0023940189 0.64592922
0.11294878 -0.0023550249 0.63537097
0.11461466 -0.00080729066 0.21783419
0.11757664 -0.00073286751 0.19775717
0.1410324 -0.00079095026 0.21342406
0.13264006 -0.00067411631 0.18189731
0.11428192 -0.00056745799 0.1531309
0.11583401 -0.00056872063 0.15345266
-0.15206687 -0.00057020615 0.32365128
0.10678343 -0.0011261515 0.63910961
0.11504374 -0.00048100232 0.2729868
0.11657531 -0.00048486461 0.27522558
0.11490281 -0.00046391916 0.26330465
0.11711532 -0.00046822708 0.26577145
0.13195741 -0.00048308203 0.27418485
0.13019329 -0.00045441202 0.25791961
0.11634457 -0.00038637649 0.21933988
0.14204821 -0.00035785502 0.2031348
0.14198807 -0.00035659235 0.20243008
0.14102708 -0.00034478272 0.19569322
0.11595601 -0.00027771274 0.15763135
0.1158696 -0.00027125084 0.1539356
-0.16613619 6.0608076e-05 0.33242476
0.11833689 5.3477714e-05 0.29267639
0.11952665 5.020963e-05 0.27524877
0.13058712 4.7684294e-05 0.26090929
0.13028535 4.694155e-05 0.25701389
0.11473471 3.9811188e-05 0.21806221
0.11711595 3.9959737e-05 0.21902896
0.11562188 3.6171732e-05 0.19802871
0.11683009 3.6171732e-05 0.19792444
0.14128789 3.891989e-05 0.21312131
0.14202225 3.891989e-05 0.21285661
0.14336188 3.891989e-05 0.21281917
0.14172879 3.6840203e-05 0.20144653
0.12204426 3.0526862e-05 0.16687736
0.11644234 2.8075799e-05 0.15338983
-0.15945043 0.00068436621 0.32179961
-0.15049838 0.00068436621 0.32177675
-0.079460174 0.0006185589 0.2908372
0.062918797 0.0012478133 0.58673328
0.10815862 0.0013592253 0.63916403
0.11766466 0.00061885599 0.29101351
0.11766982 0.00058788346 0.27641457
0.11913663 0.00058632373 0.27570733
0.11691155 0.00056433841 0.26530915
0.13267541 0.00059419684 0.27939919
0.11667877 0.00046592459 0.2190872
0.11511263 0.0004208399 0.19788106
0.1397662 0.00045277798 0.21288498
0.1443336 0.00045144104 0.21224146
0.14342375 0.00044579618 0.20958599
0.14117117 0.0004281188 0.20126531
-0.098815136 0.0013365715 0.3282921
-0.079119444 0.0011790351 0.28959
-0.077610813 0.0011748757 0.28858328
0.10642366 0.0025929264 0.63695598
0.14908226 0.0019294313 0.47394133
0.11507589 0.0011173871 0.27445519
0.13047199 0.0010844092 0.26636669
0.11506833 0.0008024628 0.19708082
0.11774261 0.00080342835 0.19732697
0.13975047 0.00087228091 0.21425593
0.12326103 0.00069030817 0.16953208
0.11664717 0.00062390667 0.15322836
-0.097733326 0.0019957586 0.33176547
-0.077431589 0.0017319352 0.28791705
0.11546273 0.0016565465 0.27537784
0.11899725 0.0016011376 0.26616898
0.13198464 0.0016208204 0.26945475
0.12750351 0.0015456545 0.2569429
0.13018771 0.0015514479 0.25790846
0.13106647 0.0015296112 0.25426632
0.11910436 0.0013292925 0.22098106
0.11522806 0.0011915874 0.19807953
0.11834293 0.0011931473 0.1983331
0.14272317 0.0012785631 0.21254525
0.11885864 0.00098339573 0.16347691
0.11686745 0.00095019501 0.15795252
-0.15951346 0.0025736149 0.32332149
0.12738347 0.0020882303 0.26235083
0.12996122 0.0020493849 0.25745997
0.11733864 0.0017467159 0.21944535
0.1166973 0.0015793751 0.19841792
0.11843795 0.0015799693 0.19849218
0.13804872 0.0017069789 0.21445796
0.14049351 0.0016979175 0.21329838
0.14099644 0.001687519 0.21199813
0.11665064 0.0012733638 0.15996982
0.11411358 0.0012206289 0.15334438
-0.099891037 0.0032867996 0.3318665
-0.077243268 0.0028445688 0.28721663
-0.072698809 0.0028112938 0.28385422
0.051999111 0.0059979712 0.60561061
0.11997415 0.0029861361 0.30150709
0.11817041 0.0027356821 0.27620393
0.11891071 0.0027389503 0.27655226
0.11451842 0.0025991655 0.26242372
0.12112542 0.0026453643 0.26709846
0.1307143 0.002689929 0.27160186
0.129527 0.0026305094 0.26559633
0.1262404 0.0025415283 0.25660792
0.12942292 0.0025609883 0.25858319
0.11495048 0.0019716194 0.199065
0.11697843 0.0019699109 0.19889595
0.13943118 0.002131087 0.21517664
0.14088811 0.0021253678 0.21459389
0.11665562 0.0015661543 0.15812275
0.11963936 0.0035059841 0.29589769
0.12785405 0.0032338419 0.27293169
0.13157776 0.0032538217 0.27461579
0.13058844 0.0031588988 0.26660436
0.12852547 0.0030556573 0.25789168
0.11281447 0.0025612854 0.21616895
0.1151839 0.002337496 0.19727869
0.11597677 0.0023363819 0.19719283
0.13807043 0.0025930749 0.21885175
0.1371675 0.0025674503 0.2166865
0.11490898 0.0018616929 0.15712094
-0.10535 0.0046619195 0.33800247
-0.0994699 0.0045906161 0.33283088
-0.098891713 0.004596781 0.33327979
0.11794738 0.0027461548 0.19909634
0.11904679 0.0027517998 0.19951242
0.13796094 0.0030162174 0.21867825
0.13716909 0.00298881 0.21668887
0.14019334 0.0029357779 0.21284264
-0.11143023 0.0052651782 0.33456743
-0.098641701 0.0052316058 0.33243722
-0.079600744 0.0045494679 0.28908998
-0.078232825 0.0045778407 0.29089618
0.091958456 0.0099318512 0.63111502
0.11552666 0.0046437965 0.29508513
0.11658245 0.0043535316 0.27663812
0.11822006 0.0042015659 0.26698348
0.11993265 0.0042015659 0.26698482
0.120302 0.0041746781 0.2652826
0.12522265 0.0042650704 0.27102372
0.12957767 0.0040742592 0.25889245
0.11430971 0.0031037871 0.19722521
0.11586474 0.00312295 0.1984448
0.11371285 0.0024613119 0.15639958
0.11637241 0.0024192724 0.15373075
-0.12258795 0.0037865192 0.21414973
0.11713352 0.005261316 0.29756486
0.11605851 0.0048942505 0.27679873
0.1190948 0.0047327778 0.26766694
0.12510096 0.0046582059 0.2634486
0.1325542 0.0047434731 0.26827645
0.13974105 0.0038383629 0.21708699
0.14212713 0.003802934 0.21508053
0.11641283 0.0027114686 0.1533509
-0.15799583 0.0062850425 0.32024521
-0.15614945 0.0062658796 0.31926924
-0.11678012 0.0066674082 0.33972952
0.11587865 0.0053964956 0.2749683
0.11854648 0.0052541853 0.26772058
0.12544574 0.0052797357 0.26901785
0.1146192 0.0039101122 0.1992287
0.11561813 0.0030757112 0.15671659
0.11474258 0.0030002482 0.15287243
0.11637361 0.0030002482 0.15286916
-0.15942678 0.0069702258 0.32314578
-0.15657638 0.0069054584 0.32014212
0.062780425 0.012884786 0.59734887
0.10314339 0.013846939 0.64195997
0.1332195 0.01024945 0.47517133
0.23987164 0.014225369 0.65950006
0.24036095 0.014171149 0.65698457
0.11509468 0.0063066566 0.2923854
0.11585024 0.0059296386 0.27490085
0.11703995 0.0059603141 0.27632231
0.11914551 0.0059770257 0.27709848
0.12390509 0.005784506 0.26817229
0.12684727 0.0057105287 0.26474261
0.1275658 0.0057174359 0.26505992
0.13203228 0.0057640062 0.26721996
0.13171904 0.0057010213 0.26429963
0.11253427 0.0046703871 0.21651879
0.11726179 0.0047684293 0.22106899
0.11591694 0.0042824508 0.19853424
0.11864454 0.0042889128 0.19883846
0.13548033 0.004695789 0.21769634
0.14040157 0.0046583544 0.21596187
0.13591854 0.0044366447 0.20568524
0.11487282 0.0033202232 0.15392268
0.1160847 0.0033077451 0.15335061
-0.12007572 0.0048958845 0.20820612
-0.1235169 0.0050549065 0.21496986
-0.1244688 0.0051513892 0.2190713
-0.12253892 0.0051886011 0.22065499
-0.15503688 0.0074540507 0.31699434
-0.11988948 0.0083044209 0.35316697
-0.09291131 0.0075255772 0.32004079
-0.073951825 0.0071475934 0.30396673
0.10563149 0.006379297 0.27129155
0.12120596 0.0063446108 0.26981944
0.12315271 0.0062967781 0.26778266
0.11704353 0.004679597 0.19900662
0.13452764 0.005100511 0.21691036
0.13641311 0.0050672363 0.21549469
0.14084047 0.0050280937 0.21382514
0.11486391 0.0036191044 0.15391064
0.11498314 0.003602244 0.153193
0.11499601 0.003592514 0.15277529
-0.096208245 0.008137377 0.31963125
-0.095134646 0.0081624817 0.32061791
-0.091385223 0.0080734268 0.31711867
-0.072331823 0.007190153 0.28242129
-0.073156826 0.0076553347 0.30069908
0.060712188 0.015011937 0.58966118
0.074975677 0.015092451 0.5928244
0.096903972 0.01621771 0.63702279
0.13206959 0.011992823 0.47106987
0.11436953 0.0073968591 0.29054341
0.114622 0.0073732398 0.28961226
0.11602139 0.0070446488 0.27671018
0.11790404 0.0070511852 0.27696478
0.11888922 0.005638185 0.22146027
0.13347159 0.0054978062 0.21595192
0.13743477 0.0054718843 0.21493153
0.13723637 0.0052702287 0.20700985
0.11640414 0.0040169191 0.15778199
-0.12425697 0.0059930691 0.21869844
-0.14585067 0.0089119123 0.32521507
0.095187768 0.017147109 0.62574083
0.10823096 0.017308062 0.63161415
0.10182873 0.014640712 0.53427517
0.13092797 0.012995382 0.47422862
0.11437078 0.0079617919 0.29054636
0.11726145 0.0075863334 0.27684522
0.11343472 0.0071231574 0.25994045
0.120303 0.007373834 0.26908961
0.12363158 0.0073667038 0.26882401
0.12442508 0.0073795533 0.26929757
0.1148876 0.0060080728 0.21924348
0.1165061 0.0060189911 0.21964441
0.11783095 0.0060388222 0.22036621
0.11550412 0.0055016684 0.20076677
0.11666752 0.0054162527 0.19764918
0.11719299 0.0054210061 0.19782297
0.11506052 0.0043366714 0.15825318
0.1153611 0.0043224846 0.15773906
-0.12534146 0.006402025 0.21814525
-0.12414679 0.0064367857 0.21932949
-0.091073677 0.0092065595 0.31371111
-0.072728895 0.008404023 0.28636143
0.09173543 0.018209459 0.62048244
0.10374715 0.018458873 0.62898362
0.13109168 0.013934658 0.47482133
0.14030662 0.013942828 0.47509646
0.11699022 0.0081469584 0.27760562
0.12089831 0.0078983614 0.26913446
0.12495764 0.0079004411 0.26920503
0.1245469 0.0077671921 0.26466402
0.12843616 0.0079020746 0.26925999
0.1154516 0.0058893817 0.20067556
0.13163653 0.0062940298 0.21446612
0.13417746 0.0063274535 0.21560283
0.1389852 0.0063155694 0.21519834
-0.12514247 0.0068663899 0.21943139
-0.12282737 0.0068680984 0.21948487
-0.089599848 0.0097293789 0.31092346
-0.084722273 0.0095539419 0.30532002
-0.06989108 0.0089893807 0.28727588
0.076624222 0.018958295 0.60585928
0.091130868 0.019287925 0.61639321
0.10024867 0.019524267 0.62394333
0.12044486 0.0086792102 0.27736321
0.12348179 0.0084017944 0.26849824
0.12474878 0.0084098158 0.2687549
0.1269318 0.0081803072 0.26142058
0.11645149 0.006897734 0.22042979
0.11615055 0.0062249545 0.19893412
0.13848841 0.0067771859 0.21657939
0.11574232 0.0048950678 0.15643167
0.11580677 0.0048006647 0.15341657
-0.1243614 0.0072747516 0.21888235
-0.086128034 0.010159577 0.30567712
-0.083981127 0.010058787 0.30264911
-0.071605861 0.0096969949 0.29176101
0.063093357 0.019554719 0.58836108
0.14134334 0.015792564 0.47516805
0.14248216 0.015806304 0.47557923
0.12249288 0.010069037 0.30295482
0.11748302 0.0092186667 0.27736855
0.11813242 0.0073723486 0.22181679
0.13100433 0.007118552 0.21418196
0.13145104 0.0071180323 0.21416384
0.13279691 0.0071411314 0.21486023
0.13482605 0.0071270936 0.21443568
0.14080465 0.0072942115 0.21946809
0.11652107 0.0052493573 0.15794049
0.11499463 0.0051359404 0.15452845
0.11495894 0.0051050419 0.1535981
0.11621162 0.0051024426 0.15351832
-0.12280498 0.0078705084 0.22371718
-0.1482476 0.010525603 0.29919013
-0.14487271 0.011473866 0.32614321
-0.11064073 0.010916138 0.31029314
-0.11171845 0.011363123 0.32299617
-0.10946433 0.011637196 0.33078745
-0.10970791 0.011738878 0.33367881
-0.10548422 0.011825111 0.33612809
-0.085679933 0.010697845 0.30408674
-0.075890243 0.010601511 0.30134469
-0.070923015 0.010255689 0.29151756
0.10379274 0.021854263 0.62121004
0.1084405 0.021988995 0.62504053
0.12641211 0.016491041 0.46875876
0.11642783 0.0097192777 0.27627122
0.11828312 0.008923796 0.25365755
0.1258343 0.0092393151 0.26262847
0.13340017 0.0075411005 0.21435383
0.13407938 0.0073035704 0.20760241
0.13418418 0.0070751016 0.20110904
0.13487227 0.006977282 0.1983285
-0.12607336 0.0081458446 0.21941906
-0.11291554 0.011756407 0.31667289
-0.091379799 0.011685623 0.31476536
0.064567082 0.02235272 0.60210365
0.10290765 0.023161791 0.62389374
0.10709831 0.023203015 0.62500429
0.10385103 0.020004379 0.5388431
0.14113425 0.017741751 0.47789899
0.1163569 0.010302481 0.27751026
0.1168878 0.010296911 0.27736261
0.1174308 0.010292677 0.2772451
0.11839622 0.0099265035 0.26738113
0.11755014 0.0096232407 0.25921452
0.12339186 0.0095182899 0.25638732
0.11805894 0.0089090904 0.23997752
0.11788792 0.0076072789 0.20491026
0.13179936 0.0079997461 0.21548176
0.13191557 0.0079789488 0.21492083
0.13325554 0.0079493131 0.21412136
0.13476378 0.0079843709 0.21506761
0.11433154 0.0058379094 0.15725063
0.11532417 0.0058371667 0.15722923
0.11574425 0.0058414005 0.15734346
-0.12283476 0.0085756714 0.21949823
-0.12182388 0.0086705945 0.22192983
-0.16718777 0.012331367 0.31563097
-0.11512959 0.012465283 0.31905711
-0.10788217 0.013161831 0.33688569
-0.089853495 0.012272987 0.31413344
-0.069054492 0.010992642 0.28136528
0.099609241 0.024547681 0.62832201
0.10624876 0.02453045 0.62787783
0.119088 0.010874841 0.27834854
0.11292935 0.0095491884 0.24441722
0.12397282 0.0099753765 0.25532651
0.11892138 0.0094033135 0.24068506
0.11460622 0.0085446984 0.21870632
0.11794333 0.0086177103 0.22057626
0.11574094 0.0077732829 0.198961
0.13356726 0.0079484219 0.20344304
0.13291134 0.0077331001 0.19793335
0.13250379 0.0076124039 0.19484575
0.13186908 0.0075286222 0.192701
0.11451253 0.0061533535 0.1574993
0.11473965 0.0061295857 0.1568895
0.11536151 0.0060048043 0.15369718
-0.12223396 0.0089927232 0.21926205
-0.12215559 0.009162589 0.22340389
-0.12366092 0.012908406 0.31473625
-0.12165506 0.012768547 0.31132451
-0.11029862 0.013848945 0.33767062
-0.10532025 0.013764347 0.33560547
-0.099707358 0.013781653 0.33602855
-0.068105109 0.011381097 0.27749705
0.10033375 0.025956893 0.63289225
0.14094898 0.019574476 0.47727153
0.11755083 0.011382435 0.27752838
0.1188965 0.010959663 0.26722133
0.11940985 0.010954389 0.26709208
0.11915678 0.010776577 0.26275724
0.11296499 0.0099813184 0.24336846
0.11632619 0.009957402 0.24278422
0.12060838 0.010011325 0.24409917
0.11459602 0.0090429327 0.22048579
0.13159503 0.0078379763 0.19110692
0.11549766 0.0064396081 0.15700819
0.11509903 0.0063617681 0.15511419
-0.12369167 0.0094229216 0.21935369
-0.12308893 0.0094127459 0.21911542
-0.17040111 0.013763753 0.32040444
-0.12535259 0.013342467 0.31059381
-0.12178987 0.013921586 0.32407761
-0.11709326 0.014022748 0.32643256
-0.11520141 0.014132971 0.32899979
-0.11503886 0.014287611 0.33259588
-0.10830917 0.014825953 0.34512988
-0.092995644 0.013760707 0.32033136
0.042553127 0.027436221 0.63868392
0.10445394 0.027203668 0.63326865
0.11161094 0.027298814 0.63548535
0.099774987 0.023004182 0.53551024
0.14638188 0.020693572 0.48172265
0.11424825 0.012467809 0.29023531
0.11521337 0.010711958 0.24936049
0.11381138 0.01043677 0.24295445
0.11265182 0.010100009 0.23511536
0.11628998 0.0094944481 0.2210182
0.13323756 0.0092286933 0.21483037
0.13141343 0.0087120393 0.20280339
0.13520031 0.008649203 0.20134225
0.13443805 0.008573072 0.1995717
0.13114116 0.0082840696 0.19284198
0.13081852 0.0082377959 0.19176485
0.1306714 0.0081773363 0.19035645
0.11572924 0.0067191776 0.15641414
-0.12220387 0.0098428708 0.21920797
-0.1492878 0.013705892 0.30523965
-0.11635385 0.014740538 0.32828319
-0.11435372 0.0150311 0.3347522
-0.10787363 0.015540475 0.34609899
-0.070050925 0.012816083 0.28542528
-0.078972116 0.014835906 0.33040744
0.094129652 0.028180527 0.62760299
0.10723609 0.028454898 0.63371253
0.13680303 0.02126155 0.47351381
0.14260018 0.021372071 0.47597319
0.14581043 0.021545725 0.47984231
0.1497422 0.021819724 0.48594472
0.11243715 0.012895556 0.28719375
0.11606829 0.011227943 0.25005418
0.11880527 0.010392057 0.23143952
0.11751555 0.0098291291 0.21890137
0.1154616 0.0090115145 0.20069295
0.11616559 0.008933749 0.19895998
0.12893592 0.0096337134 0.21454887
0.12934688 0.0096301483 0.21446985
0.13322228 0.0091114882 0.20291777
0.13454588 0.0091129737 0.20295149
0.13475245 0.0090975985 0.20260997
0.13549717 0.0091185439 0.20307702
0.13385253 0.0088939378 0.19807418
0.13154338 0.0086583393 0.19282727
0.11400875 0.0070203613 0.15634684
0.1147203 0.0070229606 0.15640597
0.11534981 0.0070409351 0.15680705
-0.12854336 0.014611003 0.31189257
-0.12838404 0.014669011 0.31313014
-0.1260376 0.014946278 0.31904954
-0.12161183 0.015334066 0.32732713
-0.10069844 0.015672388 0.33454931
-0.085433342 0.014535094 0.31027249
-0.07129357 0.013608295 0.29048842
0.047843076 0.028989451 0.61882347
0.077845909 0.027891969 0.59539574
0.10145571 0.029980127 0.63996941
0.096589647 0.024285715 0.51841372
0.11692674 0.013765758 0.29384845
0.12049645 0.0123893 0.26446512
0.11763372 0.011872052 0.25342658
0.11103669 0.010808143 0.23071533
0.11439756 0.010353656 0.22101285
0.11574876 0.0094603561 0.2019424
0.13149908 0.010071562 0.21499096
0.13230829 0.0095653804 0.20418429
0.13375762 0.0092433253 0.19730973
0.11821219 0.0077303522 0.16501351
0.11518663 0.0072512068 0.15478633
-0.11994711 0.010787346 0.22109351
-0.15092456 0.015056205 0.30858618
-0.13237303 0.014470104 0.29657626
-0.12918119 0.015292992 0.31344029
-0.1293124 0.015388287 0.31539446
-0.11817195 0.016073544 0.32943949
-0.11231848 0.016245415 0.33296072
-0.10653798 0.016909208 0.34656692
-0.10114851 0.016395822 0.33604431
-0.098892458 0.016379036 0.33570054
-0.075463943 0.014745366 0.30221698
-0.073915988 0.015224808 0.31204349
0.039863754 0.0311937 0.63933927
0.061521597 0.028560665 0.58537138
0.068136342 0.029812489 0.61103147
0.069503576 0.029838782 0.61156982
0.077664681 0.02898195 0.59400862
0.10431775 0.030857235 0.63244307
0.098972149 0.025623698 0.52517682
0.1011413 0.025891533 0.53066814
0.13668238 0.023429181 0.48020092
0.1380965 0.022981379 0.47102174
0.1167446 0.014314647 0.29339093
0.11843979 0.012449612 0.2551631
0.11826269 0.012374001 0.25361389
0.11382809 0.011191846 0.22938448
0.12118984 0.011615508 0.23806733
0.1197947 0.0098306891 0.20148769
0.12744537 0.010421024 0.21358791
0.13213469 0.010048686 0.20595442
0.13592017 0.0099392785 0.20371102
0.13572426 0.0098617356 0.20212243
0.12873249 0.0089820279 0.18409257
0.12080582 0.0083021177 0.17015688
0.11523695 0.0075338213 0.15441051
-0.12025714 0.011202096 0.22079507
-0.13281994 0.014813847 0.29198477
-0.13430291 0.015717844 0.30980131
-0.13413501 0.015933834 0.31405932
-0.13045184 0.016142545 0.31817368
-0.12799659 0.016175969 0.31883338
-0.11544451 0.016525356 0.32571775
-0.11271826 0.016332094 0.32190821
-0.11300273 0.017213734 0.33928862
-0.083087452 0.015550948 0.30651122
-0.070695214 0.014742617 0.29058099
0.051800165 0.031389337 0.61869425
0.057449065 0.030188467 0.59502441
0.13819075 0.0239136 0.47134322
0.14160679 0.02398015 0.47265726
0.11701237 0.014158744 0.27907345
0.11968814 0.014193282 0.27975127
0.12131531 0.014173673 0.27936742
0.1165242 0.01250606 0.24649616
0.11268257 0.011774307 0.23207381
0.11512019 0.010077133 0.19862366
0.13195695 0.010794774 0.21276554
0.13163045 0.010444123 0.20585428
0.13529578 0.010189955 0.20084521
0.13668624 0.010102238 0.19911848
0.11443609 0.0079387669 0.15647431
-0.11800557 0.017126163 0.32510185
-0.11772987 0.017187292 0.32626322
-0.11578863 0.01710663 0.32473019
-0.095969044 0.017414423 0.33057353
-0.091211908 0.016798465 0.31888255
-0.078221463 0.015696155 0.29795778
0.055552259 0.0309965 0.58840382
0.057777565 0.031524517 0.59842706
0.080251649 0.031310532 0.59436274
0.081832916 0.031429891 0.59662932
0.096102849 0.027810045 0.52791315
0.11926215 0.014467875 0.27463955
0.11513583 0.012602617 0.23923256
0.11306776 0.012003073 0.22785205
0.11352734 0.011797852 0.2239553
0.11558699 0.0116675 0.22148167
0.11717062 0.010456973 0.19850139
0.12995835 0.011232177 0.21321698
0.12348589 0.009135182 0.17340966
0.11930553 0.0087470226 0.166044
0.11514796 0.0082461145 0.15653284
-0.12027883 0.011922485 0.21826528
-0.11902574 0.012127557 0.22201927
-0.16309322 0.017165009 0.31424099
-0.1351323 0.016226847 0.29706812
-0.13415685 0.016418327 0.30057281
-0.13673407 0.017400386 0.31855056
-0.13567387 0.017527172 0.32087371
-0.13146792 0.01751514 0.32065177
-0.12974894 0.017560745 0.32148692
-0.12922397 0.017582804 0.32189068
-0.12584642 0.017495828 0.32029852
-0.11234355 0.018544065 0.33948827
-0.1082398 0.01834048 0.33576176
-0.10903844 0.019109221 0.3498362
-0.090104803 0.017336583 0.31738341
-0.087919757 0.017174814 0.31442133
-0.084584638 0.016911065 0.30959335
-0.072490618 0.015590834 0.28542304
-0.0701233 0.015883772 0.29078493
0.046512261 0.033796281 0.61871499
0.058640059 0.031769477 0.58160919
0.079737835 0.032777086 0.60005605
0.083069719 0.033082429 0.60564655
0.096459813 0.028279461 0.517717
0.097485289 0.02825599 0.51728708
0.11824634 0.016408522 0.30039203
0.11694694 0.015158258 0.27750313
0.11546026 0.012035605 0.22033635
0.1183653 0.01091391 0.1998018
0.13172251 0.011214871 0.20531209
0.13327998 0.011235222 0.20568405
0.13320807 0.011192291 0.20489703
0.13572852 0.01121955 0.20539765
0.13468415 0.010618148 0.19438629
0.12908733 0.0099317031 0.18182155
0.11271132 0.0084430911 0.15456782
0.11502787 0.0084433882 0.15457317
-0.11835106 0.012488012 0.22076076
-0.16113773 0.017278204 0.30544165
-0.14065725 0.017328858 0.30633536
-0.136315 0.016872367 0.29826674
-0.13222767 0.016443357 0.2906827
-0.13752294 0.017182538 0.30375072
-0.13703324 0.017450966 0.30849466
-0.13698786 0.018326961 0.32398149
-0.13125171 0.018203665 0.32180199
-0.12498561 0.017994657 0.31810772
-0.10594104 0.019631149 0.34703782
-0.097350329 0.01896899 0.33533126
-0.095267594 0.018700859 0.33059105
-0.082008988 0.017249683 0.30493721
-0.078359276 0.016884549 0.29848275
-0.077079415 0.016883656 0.29846761
-0.070689537 0.016014198 0.28309634
-0.066888086 0.015552359 0.27493265
0.046666492 0.035115324 0.62076646
0.070905782 0.034013756 0.60129136
0.09713649 0.030542608 0.53993016
0.096463785 0.029975001 0.52989566
0.11667959 0.01383721 0.24461286
0.11422618 0.013077604 0.23118238
0.1144175 0.01293158 0.22860281
0.11448879 0.012512299 0.22118902
0.11520884 0.012539038 0.22166468
0.11582766 0.012554859 0.22194262
0.12634964 0.011809216 0.20876035
0.13477892 0.011003782 0.19452311
0.13397521 0.010871128 0.19217737
-0.16323286 0.018555429 0.3171218
-0.13825142 0.018845992 0.32208544
-0.132557 0.018626139 0.31832966
-0.12344939 0.018284922 0.31249762
-0.12275413 0.018792069 0.32116368
-0.090838045 0.018721953 0.31996638
-0.081767365 0.017789956 0.30403876
0.042083822 0.036958747 0.63164085
0.043894008 0.036224168 0.61908966
0.05064724 0.036322657 0.62077153
0.058266699 0.034546901 0.59042263
0.09899462 0.030736167 0.52529597
0.10237633 0.031081099 0.53119129
0.13141271 0.028068149 0.47969791
0.1175463 0.015996076 0.27337927
0.1149868 0.013918095 0.23786649
0.11629929 0.012933362 0.22103587
0.11539081 0.011779507 0.20131774
0.12887986 0.01259311 0.21522106
0.1262677 0.012079279 0.20643809
0.13227564 0.01198391 0.20480955
0.13406299 0.011987178 0.20486495
0.13428214 0.01110034 0.18970951
0.11481968 0.0091065858 0.15563425
0.11464883 0.0090406304 0.15450752
0.11690304 0.0090617985 0.15486893
-0.16265267 0.019183645 0.31731224
-0.1610994 0.019160174 0.31692499
-0.14542939 0.01797683 0.2973505
-0.15008144 0.019578638 0.32384515
-0.14069425 0.019816315 0.32777664
-0.11161684 0.020524004 0.33948469
-0.10886712 0.020552896 0.33996153
-0.10659766 0.020964006 0.34676093
-0.085929498 0.018866938 0.31207454
-0.08150585 0.018322356 0.3030664
-0.075938113 0.01777718 0.2940481
0.04912851 0.037383597 0.61835551
0.053425852 0.036703911 0.6071142
0.057346605 0.035908949 0.59396374
0.096261367 0.031597454 0.52264738
0.097467385 0.031626273 0.52312511
0.13252255 0.029019384 0.48000422
0.11709148 0.014452203 0.23904954
0.11547864 0.014129852 0.23371707
0.13045289 0.012984983 0.21478151
0.12976035 0.012351124 0.20429541
0.13469385 0.011435466 0.18914889
0.13180055 0.011089792 0.18343405
-0.11846389 0.013679747 0.21922328
-0.16724192 0.019943474 0.31960213
-0.16205135 0.019809928 0.31746286
-0.15955706 0.019922156 0.31926048
-0.14918335 0.02008727 0.32190716
-0.13949746 0.019691236 0.31556055
-0.13143761 0.019900544 0.3189154
-0.096741199 0.020794066 0.33323315
-0.087328345 0.019638428 0.3147119
-0.076260723 0.01842686 0.29529741
-0.072244659 0.017750293 0.28445479
0.040227607 0.038925093 0.62379181
0.04591433 0.038111933 0.61076111
0.049004007 0.03848806 0.61678803
0.051861666 0.037690643 0.60400921
0.066127963 0.037004869 0.59301984
0.099045463 0.032795727 0.52556574
0.12996598 0.029836776 0.47814736
0.13120978 0.02988736 0.47895694
0.11732102 0.018497644 0.29643154
0.11263931 0.016678659 0.26728147
0.112008 0.016418623 0.26311454
0.11106486 0.015576572 0.24961956
0.11026014 0.015100918 0.24199839
0.11320725 0.014174714 0.22715506
0.1143251 0.014014132 0.22458218
0.11875241 0.01397031 0.22387925
0.11575416 0.012416783 0.19898359
0.131347 0.012732821 0.20404704
0.13217025 0.012770107 0.20464629
0.11465587 0.0096978862 0.15541233
0.11621393 0.009689345 0.15527491
-0.11878977 0.014089 0.2189602
-0.16709712 0.02063133 0.32063514
-0.1645662 0.020486867 0.31839025
-0.16264483 0.020416602 0.3172971
-0.16070813 0.020429006 0.31749034
-0.15849051 0.020493254 0.3184886
-0.13525659 0.020175284 0.3135471
-0.11164908 0.021850549 0.33958304
-0.099526837 0.021428224 0.33302131
-0.099069081 0.021483408 0.33387756
-0.077230975 0.01908486 0.29659957
-0.070748284 0.018231073 0.2833319
0.063389793 0.038036022 0.59112555
0.070742644 0.037913915 0.58922797
0.078434497 0.038600363 0.59989709
0.10084261 0.0340451 0.52910119
0.13010041 0.03079826 0.47864202
0.13964976 0.030873872 0.47981736
0.14004283 0.030293342 0.47079596
0.11419458 0.017004427 0.26427037
0.10951188 0.015538692 0.24148901
0.11411923 0.014245349 0.22138926
0.11608175 0.014253965 0.22152236
0.11706299 0.014258124 0.22158729
0.11789154 0.014243789 0.22136445
0.13067807 0.013149872 0.20436479
0.12809236 0.011369659 0.17669645
0.12524244 0.011083999 0.17225721
-0.16022709 0.021162022 0.3192358
-0.14935276 0.02060318 0.3108052
-0.14673313 0.021282941 0.32106221
-0.11167738 0.022516495 0.3396689
-0.11016192 0.02250357 0.3394734
-0.10199033 0.022303326 0.33645192
-0.078045323 0.019707058 0.29728693
-0.071358971 0.018625174 0.28096744
0.05447565 0.040062979 0.60436457
0.068510801 0.039223824 0.5917061
0.098210059 0.034545638 0.52113277
0.12931882 0.031788342 0.47953719
0.14596985 0.032068804 0.48376936
0.11164507 0.016018061 0.24163756
0.11478183 0.014700132 0.221755
0.11608261 0.014744845 0.22243105
0.11866515 0.014829964 0.2237148
0.1164778 0.013224444 0.19949475
0.12795769 0.013536769 0.20420599
0.11398251 0.010212163 0.15405326
-0.11890022 0.014895772 0.21830361
-0.11799477 0.015386058 0.22548983
-0.16079949 0.021584794 0.31633508
-0.14563833 0.0205884 0.30173343
-0.098878823 0.02290302 0.3356542
-0.078787252 0.020312469 0.2976895
-0.072771452 0.021153109 0.31000897
0.065768115 0.040243763 0.58979309
0.070429869 0.040027548 0.58662301
0.098611511 0.035704173 0.52326292
0.14385979 0.032764308 0.48017773
0.11961009 0.020846505 0.3055152
0.12038255 0.020643067 0.30253336
0.11599808 0.018049175 0.26451904
0.11687385 0.015218569 0.22303401
0.1289752 0.014141067 0.20724337
0.1293387 0.013941491 0.20431903
0.13063645 0.013940229 0.20429972
0.11723709 0.010537932 0.1544368
-0.12054198 0.015291655 0.21789777
-0.11962866 0.015294032 0.21793075
-0.11837019 0.01537254 0.21904962
-0.16091208 0.022403819 0.31924132
-0.11450631 0.024127511 0.34380332
-0.11017948 0.023827441 0.33952749
-0.10143097 0.023482064 0.33460695
-0.10025851 0.023542672 0.33546972
-0.082132429 0.021263184 0.30298823
-0.081295133 0.021213643 0.30228278
-0.066921696 0.019649124 0.27999014
0.051886734 0.04240872 0.60430127
0.070296623 0.041090194 0.58551306
0.11457171 0.018071011 0.2575013
0.11303151 0.017409893 0.24808088
0.10945657 0.016472919 0.23472929
0.11570913 0.015753198 0.2244736
0.11574033 0.015627822 0.22268729
0.11806678 0.015747702 0.22439516
0.11757412 0.015618463 0.22255464
0.11704049 0.015484991 0.22065201
0.11713809 0.0142888 0.20360689
0.12872611 0.014416997 0.20543227
0.13028213 0.014394715 0.20511703
0.11543213 0.010854639 0.1546721
-0.11780002 0.015784765 0.21886037
-0.11660527 0.01574978 0.21837491
-0.11644536 0.015791375 0.21895187
-0.11604614 0.015800733 0.21908155
-0.14783864 0.023114182 0.32048377
-0.14733335 0.023142481 0.3208752
-0.14652553 0.023341388 0.3236351
-0.11346491 0.024729209 0.34287697
-0.07973893 0.021384178 0.29649633
-0.078813024 0.02147717 0.29778692
-0.069974124 0.020563072 0.28511241
0.051828355 0.043534573 0.60362154
0.054012176 0.043217272 0.59922266
0.056997418 0.042577174 0.59034687
0.065487228 0.042355686 0.58727455
0.1399423 0.034678143 0.48082274
0.15560803 0.035437156 0.49134833
0.11356795 0.019736247 0.27364874
0.11442769 0.018371822 0.25473025
0.11550505 0.016503222 0.22882149
0.11500365 0.016090924 0.22310501
0.12792245 0.014876015 0.20626028
-0.15990543 0.023597412 0.31859511
-0.15051714 0.022894328 0.30910385
-0.1100983 0.025295701 0.34152666
-0.10826617 0.02504079 0.33808476
-0.10645305 0.024954632 0.33692044
-0.10300426 0.02481767 0.33507159
-0.080754779 0.022064906 0.29790592
0.063960478 0.043313608 0.58479112
0.068932123 0.043296002 0.58455431
0.11239207 0.021379795 0.28865442
0.11170293 0.019337988 0.26108727
0.1103583 0.018916182 0.25539264
0.11394469 0.01843659 0.24891767
0.11487139 0.016574377 0.22377616
0.1152901 0.016362324 0.22091258
0.11545981 0.016253363 0.21944045
0.1171382 0.015080567 0.20360719
0.11731283 0.014773739 0.19946459
0.11582889 0.01437778 0.19411965
0.13128468 0.015258009 0.2060021
0.1143594 0.011447945 0.15456262
0.11442732 0.0114218 0.15420893
0.11504027 0.011450024 0.15458967
-0.11686821 0.016570069 0.21799476
-0.16124283 0.024010379 0.31587905
-0.15260766 0.024356127 0.32042927
-0.14823474 0.024539288 0.32283813
-0.14779752 0.024581328 0.32339117
-0.10900754 0.025702652 0.33814299
-0.10301369 0.025830775 0.33982784
-0.09726005 0.025465271 0.33502048
-0.078531407 0.022554301 0.29672274
-0.070405953 0.021805538 0.28687185
0.058879819 0.044389475 0.58398777
0.094681583 0.041482069 0.54573578
0.096990056 0.040027771 0.52660412
0.10763668 0.037102096 0.48811471
0.10720497 0.036598515 0.48148972
0.11825439 0.03683478 0.48459765
0.13484819 0.037125938 0.48842785
0.12073782 0.022940602 0.3018049
0.11413918 0.018864783 0.24818368
0.1154276 0.017021066 0.22392738
0.11536314 0.016941294 0.22287817
0.11563458 0.016911287 0.22248393
0.12912385 0.015771024 0.20748238
0.13069497 0.015640598 0.20576695
0.11399931 0.011745488 0.15452237
0.11635649 0.011750019 0.15458253
-0.15906599 0.024705812 0.31692261
-0.15367633 0.024930345 0.31980282
-0.14701404 0.02507659 0.32167691
-0.14624724 0.025181171 0.3230204
-0.11425163 0.026914442 0.34525406
-0.11078664 0.026439827 0.33916473
-0.10819702 0.026338739 0.33786908
-0.074203618 0.022776159 0.2921679
0.096225753 0.041206211 0.52858812
0.09884607 0.040888168 0.52450776
0.10489459 0.041962478 0.53828812
0.10802021 0.038560476 0.49464822
0.13188969 0.037825976 0.48522484
0.1465279 0.03732774 0.47883514
0.15342143 0.037765145 0.48444435
0.12302727 0.023720039 0.30427673
0.11387116 0.020852447 0.26749122
0.11232485 0.020466516 0.26254097
0.11368625 0.019823298 0.25428966
0.11420218 0.019631669 0.25183174
0.1146009 0.019607902 0.25152558
0.11186892 0.018448103 0.2366484
0.1128822 0.018531365 0.2377172
0.11638168 0.015711455 0.20154339
0.11318397 0.01202944 0.15431114
0.11608682 0.012056996 0.15466349
-0.11968351 0.017420663 0.21803072
-0.11748952 0.01744079 0.2182834
-0.11652877 0.017436706 0.21823171
-0.11112897 0.02718287 0.34021258
-0.10508722 0.02712501 0.33948708
-0.10051762 0.026873294 0.33633664
-0.099431835 0.026968662 0.33753127
-0.076570675 0.023690108 0.29649767
-0.072442859 0.02318036 0.29011822
0.088908292 0.043067608 0.53902072
0.106089 0.038070414 0.47647765
0.10650086 0.037854794 0.47377941
0.1428891 0.038658742 0.48384094
0.11221728 0.020446165 0.2558974
0.11159319 0.019120956 0.23931128
0.11341427 0.018912839 0.23670676
0.11442143 0.018828908 0.23565534
0.11603332 0.016055124 0.20094013
0.1234131 0.01595426 0.19967777
0.11311985 0.012322454 0.15422378
-0.11636734 0.018275192 0.22329204
-0.15533833 0.025994476 0.31761068
-0.15486342 0.026259415 0.32084608
-0.15290405 0.026158772 0.31961712
-0.1120349 0.027888926 0.34075627
-0.10049021 0.027717944 0.33866709
-0.097474441 0.02747982 0.33575878
-0.095036045 0.027605418 0.3372924
-0.071820848 0.023743957 0.2901105
0.095126808 0.043796092 0.53511685
0.096092671 0.043715209 0.53412813
0.16092421 0.040762495 0.49805087
0.11743002 0.024415696 0.2983183
0.12208793 0.024844408 0.30355808
0.11257789 0.021217877 0.25924689
0.11085773 0.020490209 0.25035667
0.11068537 0.019338284 0.23628132
0.11392218 0.019202881 0.23462693
0.11830489 0.016344275 0.19969989
0.12278347 0.016429542 0.20074153
0.1218943 0.015866986 0.19386815
0.12548172 0.016114915 0.19689648
0.1235872 0.015558524 0.19009857
0.12887292 0.016065449 0.19629277
0.11520208 0.012080244 0.14760043
-0.11313881 0.018042266 0.21533069
-0.16282904 0.026727345 0.31898639
-0.15793404 0.026706621 0.31873906
-0.15356101 0.026775697 0.31956276
-0.15064317 0.027111044 0.32356498
-0.14745545 0.026907906 0.32114094
-0.10838776 0.02835938 0.33846447
-0.10050005 0.028379137 0.33870006
-0.099285439 0.028239576 0.33703452
-0.080518998 0.02488823 0.2970362
0.11911587 0.025632834 0.30592299
0.11735059 0.024843667 0.29650617
0.11625399 0.023470923 0.2801207
0.11257369 0.021614801 0.25796756
0.11331003 0.019727111 0.23543905
0.12369107 0.016885217 0.20152126
0.12492091 0.016761253 0.20004186
0.1230644 0.016399832 0.19572918
0.12469987 0.0161779 0.1930795
-0.11486131 0.018516064 0.21597332
-0.15645078 0.027424708 0.31988525
0.089854218 0.046105884 0.5377866
0.095965445 0.045194685 0.5271579
0.15041086 0.040717784 0.47493809
0.11422444 0.02384185 0.27809498
0.11585746 0.023933653 0.27916539
0.11878364 0.024164721 0.28186128
0.11612073 0.023038793 0.2687279
0.10717326 0.020357406 0.23745115
0.11196002 0.020033346 0.23367147
0.11786837 0.017564606 0.20487624
0.11625008 0.017069789 0.19910465
0.11909704 0.01723557 0.20103699
0.12418866 0.017108189 0.19955239
0.1255184 0.016498173 0.19243643
0.12518615 0.016347321 0.19067731
0.12338371 0.016059728 0.18732218
-0.11399052 0.019021725 0.21695165
-0.15649252 0.028054111 0.31997067
-0.15541568 0.027983403 0.31916362
-0.15420792 0.028136408 0.3209089
-0.15471298 0.028870538 0.32928294
-0.14159296 0.027814131 0.31723335
-0.1483642 0.02928447 0.33400354
-0.11102829 0.029801793 0.33990449
-0.10986809 0.029684735 0.33856785
-0.10876255 0.02997827 0.34191704
-0.0933704 0.02905459 0.33138105
0.10290897 0.046815578 0.53395462
0.15960358 0.043309297 0.49396369
0.11719825 0.025963133 0.29612139
0.10956778 0.023510883 0.26815301
0.12136589 0.024996523 0.28509697
0.1163331 0.017469386 0.19924697
0.11771212 0.017611993 0.20087343
0.11918183 0.017638955 0.20118019
0.11764836 0.017225469 0.19646524
0.12253386 0.01756468 0.20033331
0.12205157 0.016194018 0.1847003
0.12202461 0.016138237 0.18406419
0.11443113 0.013599531 0.15510765
-0.15524285 0.027142465 0.30285674
-0.10650942 0.030211342 0.33709899
-0.1067955 0.031352796 0.3498368
0.094032504 0.047983028 0.53539824
0.094542041 0.046543881 0.51933914
0.11904613 0.025316572 0.28248411
0.11397974 0.023069246 0.25740737
0.11197937 0.022026431 0.24577169
0.11422522 0.020808773 0.23218493
0.11658234 0.018027041 0.20114632
0.11826511 0.017827094 0.19891496
0.12199643 0.017813204 0.19876017
0.1225854 0.01783712 0.19902682
0.1258551 0.017522493 0.19551541
0.11448392 0.013907474 0.1551791
0.11525869 0.013880883 0.15488319
-0.16385117 0.029268946 0.31965041
-0.16097261 0.029119136 0.31801295
-0.15530123 0.029461615 0.32175311
-0.15026586 0.02928447 0.31981811
-0.14866476 0.0295093 0.32227439
-0.11196215 0.031181369 0.34053522
-0.10619276 0.032076824 0.35031512
-0.096762411 0.030745823 0.33577839
-0.095672391 0.030626612 0.3344765
-0.076724753 0.027203668 0.29709426
-0.070339032 0.02647325 0.28911701
0.15848611 0.045212585 0.49377146
0.11342672 0.025286194 0.27615285
0.11797237 0.024998678 0.27301309
0.11642066 0.02454835 0.26809597
0.11513382 0.021617178 0.23608302
0.11396611 0.020672999 0.22577266
0.1180218 0.018046649 0.1970887
0.12086195 0.018220749 0.19899057
0.12236869 0.01819193 0.1986749
0.12282383 0.018009512 0.19668375
0.123533 0.017117474 0.18694219
-0.11739028 0.020394469 0.21809891
-0.11951053 0.021269573 0.22745751
-0.16096011 0.029610015 0.3166509
-0.15256496 0.029954948 0.32033968
-0.14330789 0.029738957 0.31802943
-0.11267091 0.031838104 0.34047732
0.09983132 0.048980091 0.52379507
0.12299688 0.028597133 0.30581826
0.11651187 0.026804443 0.2866472
0.11499315 0.026179718 0.27996665
0.11722662 0.026277984 0.28101707
0.11558563 0.024292029 0.25977987
0.11056725 0.021871494 0.23389474
