# .PCD v0.7 - Point Cloud Data file format
VERSION 0.7
FIELDS x y z
SIZE 4 4 4
TYPE F F F
COUNT 1 1 1
WIDTH 1393
HEIGHT 1
VIEWPOINT 0 0 0 1 0 0 0
POINTS 1393
DATA ascii
0.11201122 0.021068037 0.15682524
0.11249259 0.020970285 0.15609783
-0.1125513 0.028726578 0.21078283
-0.10998049 0.028761148 0.21103668
-0.10776857 0.028772712 0.21112162
-0.10749751 0.029566944 0.21694934
-0.11193612 0.031888187 0.23398155
-0.091494113 0.031226695 0.22912759
-0.087582558 0.030883491 0.22660947
-0.088784337 0.031835496 0.23359442
-0.10611019 0.042333007 0.31062073
0.1195462 0.052507997 0.38528001
0.10210815 0.037167907 0.27272153
0.10250548 0.036891282 0.27069223
0.10342541 0.036806941 0.27007282
0.10086361 0.032618284 0.23933887
0.10690752 0.030961215 0.22717994
0.10373583 0.029506624 0.21650678
0.10285982 0.028998733 0.21278006
0.10310873 0.028940976 0.21235603
0.10400894 0.02893883 0.21234059
0.098930508 0.02361083 0.17324603
0.098686606 0.022951305 0.16840661
0.098605007 0.022848964 0.16765589
0.0984914 0.022740006 0.16685641
0.11017135 0.023559928 0.17287254
0.10844377 0.022365391 0.16410756
0.10849908 0.022233009 0.16313601
0.10903874 0.022271991 0.16342223
0.11194268 0.021488428 0.15767282
0.11274162 0.021320879 0.15644336
-0.12091941 0.029529691 0.21362793
-0.11850247 0.029496312 0.21338665
-0.11001939 0.029181838 0.21111125
-0.099583745 0.030404031 0.2199536
-0.09133634 0.030475676 0.2204718
-0.094536394 0.032378674 0.2342388
-0.10528597 0.042871594 0.31014836
-0.10232186 0.042466819 0.30721992
0.063506275 0.070603311 0.51076883
0.11902484 0.052662015 0.38097548
0.10122463 0.041918635 0.30325407
0.10515514 0.04219532 0.30525631
0.10225353 0.03711617 0.2685113
0.10335007 0.037304819 0.26987618
0.10515323 0.037536621 0.27155346
0.10695276 0.031416297 0.22727615
0.10493985 0.030410588 0.22000092
0.10373685 0.029794931 0.21554738
0.11245403 0.023676515 0.17128432
0.11061493 0.023213744 0.16793644
0.11216673 0.021904588 0.1584655
0.11207357 0.021820486 0.15785718
0.11235192 0.021743774 0.1573022
0.11419788 0.02171123 0.15706658
-0.11477408 0.029194832 0.20827609
-0.11171171 0.028863668 0.2059136
-0.11165738 0.029667795 0.21165025
-0.1092363 0.02950263 0.21047193
-0.11089373 0.031371415 0.22380358
-0.10610837 0.030147672 0.21507365
-0.10068575 0.029902399 0.21332401
-0.097321928 0.02971071 0.21195608
-0.097316384 0.02984786 0.21293515
-0.093897849 0.029774129 0.21240872
-0.090192109 0.030996919 0.22113246
-0.105189 0.04343462 0.30986279
0.10684362 0.04635185 0.33067459
0.099626333 0.032001317 0.22829789
0.10404566 0.030170023 0.21523303
0.10266414 0.029379666 0.20959508
0.10251728 0.028834403 0.20570499
0.1028302 0.028554976 0.20371181
0.099611551 0.025206447 0.17982316
0.099201947 0.024534881 0.17503172
0.099046856 0.024404407 0.17410153
0.099594265 0.023823261 0.16995555
0.09823063 0.022670269 0.16172969
0.096368819 0.022162557 0.158108
0.11217239 0.024106383 0.17197508
0.10719374 0.022738397 0.16221595
0.10819438 0.022803187 0.16267794
0.11295894 0.021971524 0.15674496
-0.11478621 0.029602885 0.20829821
-0.10785463 0.029902935 0.21040916
-0.10658637 0.029675066 0.20880562
-0.10583225 0.029839933 0.20996577
-0.10575312 0.029944599 0.21070224
-0.1008195 0.030220628 0.21264446
-0.09901008 0.030085146 0.21169108
-0.088147759 0.028476238 0.20036995
-0.087209016 0.028589666 0.20116824
-0.086556584 0.028801739 0.2026608
-0.093666285 0.031642556 0.22264987
0.11308911 0.049741924 0.3500042
0.10527554 0.045111477 0.31742245
0.10366896 0.030210614 0.21257406
0.10239986 0.029200912 0.20546937
0.099524409 0.024136782 0.1698364
0.11311641 0.024406552 0.17173421
0.10926333 0.023423135 0.16481471
0.10848168 0.023106635 0.1625874
0.10985073 0.023175418 0.16307205
0.11244527 0.022441268 0.15790546
0.11426118 0.0224002 0.15761697
-0.11459294 0.029957354 0.20794743
-0.11163154 0.029878557 0.20740002
-0.092882335 0.03213352 0.2230528
-0.08833769 0.031039178 0.21545678
-0.089661807 0.032697678 0.22696871
-0.081918627 0.031403065 0.21798211
-0.1106486 0.044974327 0.31218648
-0.10334206 0.044415116 0.30830443
-0.098735631 0.043545902 0.30227149
0.11936429 0.055419922 0.3846938
0.11911634 0.05346334 0.37111288
0.10199705 0.043740749 0.30362415
0.10305116 0.039204121 0.27213323
0.10302517 0.038756728 0.26902777
0.099714905 0.031978667 0.22197753
0.10048756 0.031772852 0.22054952
0.10547689 0.031433463 0.21819377
0.099739403 0.024430811 0.16958475
0.099694401 0.023898602 0.16589099
0.098203331 0.023211002 0.16111773
0.097166866 0.022806108 0.15830708
0.11220744 0.025112033 0.17431355
0.10860792 0.023375094 0.16225666
0.10910591 0.023407519 0.16248196
0.11189726 0.022705495 0.15760893
-0.11220062 0.030077875 0.20600319
-0.11134133 0.030083597 0.20604259
-0.092052907 0.029969096 0.20525807
-0.090881795 0.029872537 0.20459688
-0.095544159 0.032826543 0.22482914
-0.094277292 0.032720447 0.22410232
-0.090338767 0.032855868 0.22502971
-0.083410054 0.031862617 0.21822727
-0.082702905 0.032689333 0.22388899
-0.083101392 0.033037961 0.22627705
-0.11287051 0.04567045 0.31279671
0.1002132 0.033204079 0.22741514
0.10623649 0.031945884 0.2187978
0.10268763 0.029955745 0.20516682
0.10317042 0.029715896 0.20352417
0.1016269 0.0291484 0.19963747
0.10039309 0.024390936 0.16705364
0.11280826 0.025672495 0.17583084
0.11352995 0.025165975 0.17236203
0.11199561 0.024745584 0.16948253
0.10907724 0.023717225 0.16243923
0.10112289 0.019840479 0.13588762
0.10862604 0.02089256 0.14309335
-0.11193278 0.030525446 0.20632106
-0.091408581 0.033332705 0.22529572
-0.087435991 0.033104897 0.22375548
-0.084669411 0.034309268 0.23189616
-0.1106239 0.046178043 0.31211692
-0.10445255 0.045812011 0.30964297
-0.10364518 0.045747757 0.30920857
0.11384788 0.051116467 0.34549618
0.10083082 0.034185231 0.23105794
0.10033205 0.033362627 0.22549719
0.099668771 0.032517135 0.21978331
0.1030809 0.029959202 0.20249373
0.10016885 0.024573147 0.16608971
0.11291721 0.025446117 0.17198986
0.10984102 0.024513483 0.16568625
-0.091840386 0.033930361 0.2263599
-0.091678321 0.034049809 0.22715706
-0.090720028 0.034237862 0.22841161
-0.083828509 0.03362751 0.22434008
-0.11130932 0.046792507 0.31216818
-0.10078752 0.043950081 0.29320496
0.12069795 0.05790925 0.38633072
0.11398122 0.051848829 0.3459006
0.10115024 0.045422971 0.30303127
0.10308531 0.045419455 0.30300772
0.074411064 0.025189459 0.16804677
0.096696645 0.031516552 0.21025664
0.098951668 0.032102287 0.21416456
0.10185143 0.029741049 0.19841236
0.099558264 0.024744332 0.16507739
0.099686772 0.024515629 0.16355157
0.099765927 0.024112284 0.16086102
0.10195985 0.024225116 0.16161382
0.1136637 0.023641944 0.15772283
0.10207519 0.020385087 0.13599557
-0.084242672 0.03423202 0.22544843
0.10338554 0.045854509 0.30199307
0.10703579 0.032751322 0.21569657
0.10212287 0.029957712 0.19729823
0.1002281 0.02635473 0.1735695
0.099499971 0.025971055 0.17104238
0.10306171 0.024720788 0.16280872
0.10556951 0.024984956 0.16454804
0.10888788 0.025684714 0.16915667
0.11282185 0.024348915 0.1603595
0.11387351 0.023992777 0.15801394
0.11456618 0.024067402 0.15850514
0.1000804 0.019850254 0.13073194
-0.086464077 0.033842385 0.22006464
-0.086491823 0.036217511 0.23550892
-0.11104009 0.047890306 0.31141317
-0.10823739 0.047248006 0.30723631
-0.085882336 0.038421988 0.24984366
0.11344746 0.052944899 0.3442809
0.10297731 0.046843171 0.30460393
0.1008977 0.034873366 0.22676861
0.10032204 0.034181774 0.22227156
0.10215488 0.030476689 0.19817841
0.10146597 0.027021885 0.17571312
0.10015514 0.026574433 0.17280352
0.099899441 0.025205255 0.16390049
0.10736707 0.025565386 0.16624212
0.11290899 0.026447415 0.17197734
0.11099055 0.025829852 0.16796172
0.11228243 0.024103463 0.15673584
0.11287335 0.024158239 0.15709198
0.11384574 0.024294138 0.15797544
0.10361305 0.021168709 0.13765234
-0.089366496 0.0346663 0.22260779
-0.086201191 0.035720646 0.22937781
-0.087316185 0.037024915 0.23775345
0.11569127 0.055031538 0.35338235
0.10295984 0.042103589 0.27036613
0.10046425 0.034499645 0.22153765
0.099079758 0.025951564 0.1666463
0.098514944 0.02525878 0.16219777
0.10017434 0.025504708 0.16377729
0.11271515 0.024429381 0.15687186
0.11562601 0.024838567 0.1594997
-0.091762453 0.035473645 0.22498268
-0.08842656 0.03607446 0.22879326
-0.088987321 0.038428366 0.24372226
-0.087888002 0.038403213 0.24356306
0.10024604 0.047657788 0.30225784
0.10268256 0.043242633 0.27425575
0.10252514 0.041746497 0.26476651
0.10037675 0.03489995 0.22134465
0.10658625 0.03343457 0.21205068
0.10395625 0.032064259 0.20335937
0.10368624 0.031847775 0.20198667
0.098822862 0.026687145 0.16925657
0.09891203 0.026613772 0.16879141
0.10150173 0.025453806 0.16143453
0.10109094 0.025264859 0.16023648
0.10189834 0.02521044 0.15989119
0.10899141 0.026090384 0.16547161
0.10844979 0.02587676 0.16411668
0.1091989 0.025722682 0.16313976
0.11322597 0.025297999 0.16044647
0.10437813 0.02167964 0.13749772
-0.079593599 0.037424505 0.23446453
0.11867085 0.060217381 0.3772614
0.10113171 0.041458011 0.25973451
0.10003063 0.03439796 0.21550292
0.097442061 0.032901764 0.20612949
0.10732391 0.032037616 0.2007159
0.10381714 0.030867457 0.19338471
0.098790318 0.026332498 0.16497344
0.10184279 0.025679708 0.16088319
0.10320225 0.025675714 0.16085827
0.10912481 0.026617169 0.16675639
0.10921088 0.026126146 0.16368026
0.1092197 0.023359537 0.1463477
0.1032283 0.021583676 0.13522154
0.1061503 0.021888137 0.13712949
-0.11586583 0.033071578 0.2046997
-0.086834013 0.037119508 0.2297551
-0.079179794 0.037683487 0.23324567
-0.07828784 0.037495077 0.23207945
-0.082910299 0.040741503 0.25217348
0.10379788 0.044284821 0.27410525
0.1004459 0.034961522 0.21639758
0.097401232 0.033138752 0.20511585
0.10219935 0.031254411 0.19345194
0.097899526 0.025679708 0.15894723
0.10223123 0.026003838 0.16095334
0.10525528 0.026329994 0.16297227
0.10870555 0.023944259 0.1482054
0.11856887 0.024678588 0.15275049
-0.11534441 0.034762859 0.21260953
-0.08961466 0.037496924 0.2293309
-0.081578493 0.038327098 0.23440826
-0.078209639 0.038150132 0.23332596
0.11784735 0.060032606 0.36715943
0.11470011 0.055474162 0.33927971
0.10229591 0.042490423 0.25987142
0.10076347 0.035494089 0.21708173
0.096535355 0.032942891 0.20147872
0.097785801 0.032928884 0.20139337
0.10500535 0.033169925 0.20286709
0.098239094 0.026823521 0.1640529
0.098025173 0.025842786 0.15805429
0.10691467 0.026889086 0.16445321
0.11391124 0.026553452 0.1624012
0.1142275 0.026465952 0.16186571
0.11192992 0.025777459 0.15765488
0.11177674 0.025664926 0.15696657
0.11247292 0.025670707 0.15700173
-0.11825755 0.034697711 0.20971709
-0.11502892 0.034008145 0.2055496
-0.11871707 0.035921752 0.21711558
-0.088335127 0.036600292 0.2212165
-0.080322623 0.03842175 0.23222578
0.11733195 0.061297178 0.37048781
0.11609945 0.056461692 0.34126139
0.10207853 0.042216659 0.25516278
0.10083613 0.035942018 0.21723837
0.10060188 0.035694182 0.21574014
0.10729924 0.034297585 0.20729887
0.10420284 0.032900214 0.19885325
0.09845522 0.027105451 0.16382903
0.098365158 0.026331544 0.15915102
0.098244637 0.026208639 0.15840822
0.097893029 0.025936067 0.15676081
0.099740654 0.026157022 0.15809613
0.10620001 0.027026892 0.16335392
0.10969773 0.024744391 0.14955813
0.11775127 0.025237262 0.15253723
0.11965743 0.025575042 0.15457863
0.11964378 0.025431633 0.15371209
-0.10248926 0.039770722 0.23758709
-0.088603139 0.037748873 0.22550887
-0.082562029 0.039469242 0.23578626
-0.077498883 0.038950861 0.2326892
0.10373959 0.044599235 0.26643217
0.099468857 0.027608156 0.16492921
0.098348171 0.026453376 0.15803045
0.097963601 0.026170194 0.15633863
0.11165038 0.026245654 0.15678906
0.11504427 0.02587831 0.15459502
0.11907116 0.025537252 0.15255749
-0.11508596 0.036207616 0.21381789
-0.095594376 0.038284838 0.22608447
-0.09014383 0.036846995 0.21759337
-0.087185353 0.036776125 0.21717471
-0.094945073 0.041370809 0.24430811
-0.086470902 0.040104449 0.23683023
-0.084480762 0.04060775 0.23980218
-0.079514474 0.03869009 0.22847754
0.10169616 0.05126363 0.30272835
0.10305426 0.0512954 0.30291647
0.10185024 0.04381454 0.25873929
0.10227999 0.04376179 0.25842786
0.10348323 0.043112457 0.25459349
0.099405438 0.027520895 0.16252017
0.09785226 0.026264906 0.15510285
0.10098299 0.026742816 0.15792519
0.1088554 0.027538896 0.16262645
0.11292437 0.026613832 0.15716308
0.11084911 0.025517464 0.15068883
-0.11911783 0.036881268 0.21532351
-0.1220701 0.039956629 0.23327821
-0.12478489 0.041351855 0.24142432
-0.090260535 0.037318289 0.21787506
-0.090111762 0.037449956 0.21864396
-0.08925274 0.037481725 0.21882927
-0.090684444 0.041098118 0.23994291
-0.085719794 0.041425169 0.24185193
-0.081766754 0.040242791 0.23494917
0.11706319 0.063312888 0.36963916
0.10332277 0.046734571 0.27285045
0.10223803 0.044486344 0.25972444
0.10280731 0.044492483 0.25976014
0.10342261 0.044280529 0.25852263
0.10434589 0.033559442 0.19592965
0.10283628 0.032170117 0.18781865
0.098543674 0.02693671 0.15726441
0.098284036 0.026504159 0.15473884
0.10682049 0.02777791 0.16217577
0.11273888 0.027035952 0.15784389
0.11027935 0.025752604 0.15035111
0.11503157 0.026476562 0.15457803
-0.13304988 0.04102844 0.23684746
-0.1089479 0.042692482 0.2464537
-0.10341349 0.041323006 0.2385478
-0.095949143 0.039309323 0.22692347
-0.094496399 0.039109588 0.22577024
-0.09052828 0.037853837 0.2185213
-0.084630609 0.041363001 0.23877889
-0.079192817 0.040926576 0.23625916
0.10131517 0.036793828 0.21240216
0.099406749 0.035155594 0.20294493
0.10213962 0.032314956 0.18654633
0.098857135 0.027329147 0.15776461
0.09988156 0.02696842 0.15568233
0.11686215 0.027925074 0.16120487
0.10762826 0.024354279 0.14059144
0.10901019 0.024529994 0.14160597
0.1116074 0.024975777 0.14417917
0.11401108 0.025373518 0.14647543
-0.11907768 0.037705839 0.21525091
-0.096473306 0.039967716 0.22816312
-0.090418726 0.039664865 0.22643441
-0.082716852 0.038999915 0.22263861
-0.080429286 0.038140774 0.21773398
-0.084047645 0.042046189 0.24002892
-0.084392399 0.042740524 0.24399227
0.11076823 0.060857594 0.34741741
0.10310331 0.045633554 0.26050794
0.099956244 0.035746694 0.20406687
0.1049675 0.034525752 0.19709688
0.10370043 0.033437967 0.19088727
0.10248622 0.032788455 0.18717933
0.10210833 0.032289386 0.18433052
0.10345545 0.032218218 0.18392378
0.099054366 0.027785778 0.15862042
0.10005721 0.027319133 0.15595621
0.10593227 0.028356314 0.16187769
0.11231139 0.02796334 0.15963393
0.11229566 0.027458906 0.15675437
0.11266753 0.027467906 0.15680557
0.11176893 0.026385427 0.1506263
-0.11650056 0.038034022 0.21474063
-0.10108286 0.039731324 0.22432369
-0.10710391 0.042912126 0.24228251
-0.10356423 0.042521894 0.24007916
-0.089478523 0.039267719 0.22170645
-0.083484203 0.04073602 0.2299965
-0.087099284 0.044327199 0.2502718
0.11353567 0.061423481 0.346798
0.11340812 0.060956478 0.34416145
0.11307719 0.060386956 0.3409459
0.10249189 0.045620143 0.25757223
0.10090986 0.036809504 0.20782751
0.10518673 0.034703314 0.19593585
0.099116474 0.027732134 0.15657628
0.099712938 0.027619243 0.15593904
0.11197987 0.028190196 0.15916276
0.1078296 0.024878144 0.14046228
0.10883144 0.024970174 0.14098227
-0.11951819 0.038388789 0.21439052
-0.11637375 0.037961006 0.21200132
-0.11969355 0.040299177 0.22505951
-0.09833622 0.03907603 0.21822834
-0.10435247 0.043102264 0.24071372
-0.091391027 0.04142487 0.23134583
-0.082364947 0.037949622 0.21193755
-0.077212125 0.035772145 0.19977719
-0.082496226 0.039084852 0.21827763
-0.089137882 0.045582652 0.25456595
-0.078530252 0.042768776 0.23885149
-0.076743454 0.042911589 0.23964858
0.12081572 0.069243968 0.38670772
0.12056652 0.066815495 0.373146
0.11313751 0.061879992 0.34558183
0.10402671 0.049468696 0.2762689
0.10279754 0.04576683 0.25559449
0.097469479 0.034429312 0.19227785
0.10471943 0.034380913 0.1920076
0.10300949 0.033426523 0.18667758
0.099773198 0.028414249 0.15868539
0.10056308 0.028066695 0.15674466
0.10323229 0.028526604 0.15931284
0.11373666 0.029123783 0.1626479
0.11266974 0.028675258 0.16014326
-0.11870527 0.03899014 0.21540987
-0.12097892 0.040845931 0.22566253
-0.12153786 0.041869283 0.23131615
-0.10279891 0.041688442 0.23031688
-0.10305783 0.042402506 0.23426229
-0.10543045 0.045132935 0.24934697
-0.098656178 0.042883337 0.23691839
-0.095485419 0.043051898 0.23784989
-0.087943524 0.039863706 0.22023588
-0.078686625 0.04303956 0.23778141
-0.078540713 0.043238938 0.2388832
0.10487941 0.049849868 0.27540672
0.1045526 0.049417138 0.27301621
0.10432169 0.049034417 0.27090138
0.10005 0.046256304 0.25555342
0.099808186 0.036094844 0.19941384
0.10356787 0.034372091 0.18989617
0.10260597 0.033017695 0.18241352
0.10281244 0.032834589 0.18140203
0.11186674 0.028692901 0.15852046
0.10952857 0.026950419 0.14889365
-0.11964181 0.039719939 0.21710944
-0.11716866 0.040468514 0.22120094
-0.0983046 0.039351821 0.21509743
-0.094371647 0.038314998 0.20943016
-0.096382082 0.042784154 0.23385811
-0.091953099 0.041463137 0.22663766
-0.082536906 0.039506495 0.21594286
-0.083284289 0.040088415 0.2191236
0.10723218 0.052698791 0.28805178
0.10361591 0.033958912 0.18561971
0.10258171 0.033238173 0.18168002
0.10228601 0.0328933 0.17979515
0.10168144 0.028898835 0.15796155
0.10674933 0.029650092 0.16206759
0.11365929 0.028854132 0.15771675
-0.12368205 0.041822076 0.22619575
-0.10415983 0.046248257 0.25013518
0.12227979 0.071389258 0.38611096
0.09822908 0.035233617 0.19056237
0.10331461 0.033451557 0.18092352
0.11464652 0.029327035 0.15861619
0.10942319 0.027502954 0.14875048
-0.12140173 0.042649627 0.22827137
-0.10216597 0.043390214 0.23223513
-0.10148522 0.045302093 0.24246764
-0.08225736 0.038080096 0.20381415
0.11089101 0.066316307 0.35494071
0.11248162 0.06377697 0.34134978
0.10206035 0.057127059 0.30575764
0.100449 0.048200607 0.25798106
0.10248807 0.048382223 0.25895351
0.10066971 0.038067281 0.20374531
0.10352084 0.034126222 0.18265194
0.10321477 0.033897519 0.18142778
0.11304167 0.029482186 0.15779567
0.10540602 0.026464283 0.14164329
0.10558668 0.026358247 0.14107573
0.1060504 0.025667667 0.13737971
0.11192575 0.026793003 0.14340264
-0.12504953 0.042673409 0.22604597
-0.097325623 0.041764677 0.22123247
-0.098912269 0.043939888 0.23275483
-0.084384531 0.040545046 0.21477187
-0.091741204 0.045824707 0.2427389
0.11745086 0.069079816 0.36592394
0.1000677 0.037109733 0.19657463
0.099854439 0.03597331 0.1905551
0.10569742 0.035609245 0.18862635
0.10379127 0.033436656 0.17711776
0.11222497 0.030021548 0.15902805
0.11334291 0.029868305 0.15821624
0.10597768 0.026731133 0.14159817
0.10497454 0.026253164 0.13906628
0.10462752 0.026092529 0.13821536
0.10265407 0.02538538 0.13446933
0.10302547 0.025335312 0.13420427
-0.12461177 0.042961955 0.2252546
-0.12309223 0.042935789 0.22511709
-0.096322894 0.041760087 0.21895301
-0.083503693 0.038844526 0.20366663
-0.076715201 0.045997441 0.24116999
0.11372986 0.065826833 0.34513783
0.1014336 0.048881054 0.2562893
0.10052344 0.037821472 0.19830239
0.099627048 0.037015915 0.19407922
0.10518697 0.033987284 0.17819959
0.11242822 0.03047806 0.15980005
0.10769573 0.02792269 0.146402
0.10682395 0.027616382 0.14479631
0.10656384 0.027311802 0.14319909
0.10653952 0.027227402 0.14275646
0.11030683 0.027028978 0.14171642
-0.12228036 0.043087363 0.22363228
-0.12089065 0.043103099 0.22371411
-0.094405413 0.040174901 0.20851612
-0.084808439 0.039853632 0.2068488
-0.084896058 0.040528655 0.21035224
0.10428515 0.049432755 0.25656635
0.10474429 0.04032135 0.20927602
0.10282472 0.034181595 0.17740947
0.10300007 0.033498645 0.17386508
0.11314312 0.030612528 0.15888542
0.10649696 0.027652323 0.14352149
0.10185161 0.025633931 0.13304561
-0.12498128 0.043298721 0.22248417
-0.12001911 0.043395817 0.22298324
-0.09256798 0.041761994 0.21458799
-0.093366802 0.042544007 0.21860605
-0.075951964 0.046782672 0.24038577
0.1038461 0.050249875 0.2582016
0.097457021 0.035901546 0.18447524
0.11089936 0.038080394 0.1956706
0.10378549 0.034218252 0.1758253
0.11282834 0.031305254 0.16085738
0.11407825 0.030898809 0.15876895
0.10679832 0.027691424 0.14228827
-0.12504855 0.04409039 0.22431087
-0.12183821 0.043290377 0.22024101
-0.09965378 0.042072594 0.21404546
-0.08563289 0.042608082 0.21676987
-0.076710939 0.046160877 0.23484468
-0.076668143 0.047695637 0.24265248
0.12225714 0.075370908 0.38345152
0.11462906 0.067935765 0.34562486
0.10151532 0.039529443 0.20110703
0.10031131 0.038250804 0.19460189
0.10928848 0.037759781 0.19210386
0.11277977 0.03160435 0.16078812
0.11429361 0.031266391 0.1590687
0.10761556 0.028182149 0.14337707
0.10454074 0.027144969 0.13810068
0.1013588 0.026024759 0.13240182
0.10656479 0.02720952 0.13842934
-0.096822232 0.041857958 0.21086776
-0.091948926 0.041896462 0.21106148
-0.085578948 0.042091548 0.21204424
0.10547045 0.061539769 0.31001866
0.10385826 0.05072087 0.25551605
0.100624 0.038910866 0.19602138
0.096876055 0.035964191 0.18117648
0.10505739 0.035980999 0.18126166
0.10304138 0.034156978 0.17207235
0.11332551 0.032268107 0.16255689
0.11006394 0.027992368 0.14101714
-0.12470779 0.044330239 0.22115588
-0.097226828 0.042247951 0.21076781
-0.087069005 0.040259004 0.2008453
-0.087162763 0.040907443 0.20408022
-0.0878084 0.042486131 0.21195602
-0.075332493 0.04811728 0.240049
0.10064796 0.051251471 0.25568503
0.10282132 0.051519036 0.25701952
0.097540289 0.036132216 0.18025726
0.10278288 0.034652352 0.17287475
0.11248973 0.03224498 0.16086477
0.11391976 0.031970859 0.15949738
0.11179754 0.030113697 0.15023214
0.10976651 0.029397726 0.14666039
0.11003128 0.029384732 0.14659542
-0.12513629 0.044744432 0.2210778
-0.12261176 0.04451406 0.21993971
-0.12079197 0.044192255 0.2183497
-0.097042501 0.042576909 0.21036822
-0.07695803 0.048638582 0.24031854
0.10641769 0.062913597 0.31085002
0.10068962 0.051490486 0.25440943
0.09999308 0.038307905 0.18927562
0.10570183 0.036910951 0.18237364
0.10277167 0.034488738 0.17040563
0.11401013 0.0332008 0.16404188
0.11315033 0.032849371 0.16230559
0.11213425 0.032160044 0.15889949
0.11086908 0.029895663 0.14771169
0.10977575 0.029516876 0.14583975
0.10448208 0.027622879 0.13648182
-0.12530828 0.045066178 0.22054875
-0.10428742 0.045354605 0.22196013
-0.096393347 0.04412961 0.21596545
0.10169271 0.062252402 0.30465645
0.10912398 0.064330041 0.31482416
0.10112849 0.052495241 0.25690573
0.098774225 0.037446976 0.18326151
0.10268489 0.035290956 0.17270988
0.10556844 0.028336406 0.13867515
0.10786322 0.028472722 0.13934237
0.10928652 0.028611422 0.14002115
-0.12211198 0.045011818 0.21820658
-0.097705394 0.04494071 0.21786177
-0.097389162 0.046113908 0.22354901
-0.089292377 0.043562412 0.21117997
-0.074249744 0.049140453 0.23822123
0.10825977 0.068213463 0.33068264
0.11011067 0.065529466 0.31767088
0.10054138 0.039578319 0.1918661
0.098740011 0.037345946 0.18104404
0.10443541 0.03649652 0.17692626
0.10126689 0.034152567 0.16556358
0.11242154 0.03316319 0.16076732
0.11156806 0.032711506 0.15857744
0.1131641 0.032781124 0.15891492
0.10702112 0.028598189 0.13863713
0.10870591 0.028809071 0.1396597
-0.12090495 0.045333266 0.2177127
-0.10601559 0.046351016 0.2226004
-0.10356852 0.045899034 0.22043002
0.10277978 0.063707292 0.30595404
0.10197511 0.034715533 0.16672134
-0.10246971 0.046045661 0.21908802
-0.085689902 0.040543497 0.19290864
0.10246947 0.063302517 0.30119753
0.10169259 0.040786088 0.19406289
0.09732303 0.036925077 0.1756919
0.10246482 0.03508544 0.16693866
0.10337988 0.035153866 0.16726452
0.11344889 0.033483028 0.15931481
0.11442611 0.033569992 0.15972823
0.10509196 0.028932512 0.13766277
0.10539392 0.028854072 0.13728952
0.10614327 0.028978527 0.13788182
-0.10241386 0.044808149 0.21124578
-0.10440481 0.047566533 0.22425008
-0.085501045 0.040828407 0.19248348
-0.078144222 0.051760554 0.24402273
-0.075741112 0.05084753 0.23971838
0.10126379 0.062742233 0.29579544
0.11092845 0.067466736 0.31806886
0.099732906 0.038940668 0.18358397
0.097906858 0.037203193 0.17539239
0.10387865 0.036405683 0.17163271
0.11159483 0.033644557 0.15861547
-0.1198349 0.046013653 0.21495867
-0.10421327 0.045412719 0.21215141
0.10765138 0.073257089 0.34222978
0.11988142 0.078899145 0.36858761
0.11267343 0.068318844 0.31916022
0.10048977 0.040228963 0.18793482
0.099766046 0.039156675 0.18292522
0.11425063 0.04069519 0.19011259
0.10370257 0.036548078 0.17073894
0.10387912 0.036481917 0.17042989
0.10226896 0.034817576 0.1626547
0.11448064 0.034309804 0.16028267
-0.10376403 0.045827091 0.21215999
-0.1049504 0.047175705 0.21840346
-0.10382649 0.050006807 0.23151046
-0.077073604 0.053782165 0.24898863
0.10750058 0.073320746 0.33944422
0.1181846 0.079534292 0.36821008
0.10452124 0.065947831 0.30531043
0.1010417 0.040493608 0.18746835
0.10254505 0.035714269 0.16534197
0.10217682 0.035221934 0.16306251
0.10203329 0.034934163 0.16173023
0.11201683 0.034495711 0.15970051
0.11330536 0.034368873 0.15911329
0.099903136 0.039612293 0.18175209
0.09762755 0.037827492 0.17356282
0.096354157 0.037192762 0.1706506
0.10387823 0.036885619 0.16924143
-0.12367129 0.047505736 0.21604222
-0.099269837 0.045833349 0.20843643
-0.08773157 0.041246474 0.18757677
-0.086688429 0.041131973 0.18705612
0.10819814 0.069065571 0.31408989
0.09864977 0.038711667 0.17604911
0.098668605 0.038571894 0.17541367
0.097939521 0.038141966 0.1734584
0.10566285 0.038119495 0.17335624
0.10399547 0.037127376 0.16884446
0.10373297 0.036905646 0.16783589
0.10358456 0.03672576 0.16701812
0.11374655 0.035123825 0.15973288
-0.099326223 0.045249462 0.2039777
-0.088824004 0.041373074 0.18650329
-0.099888921 0.048942983 0.22062767
-0.078387767 0.0554111 0.24978459
0.10765097 0.072004378 0.32458484
0.10084167 0.041178226 0.18562496
0.10264018 0.03537184 0.15945089
0.11150888 0.035374284 0.15946215
-0.12472677 0.048397064 0.21627104
-0.12267691 0.047957122 0.21430504
-0.10544711 0.046815097 0.20920175
0.11424628 0.078092039 0.34896851
0.10395923 0.067533314 0.30178469
0.10002115 0.041039705 0.18339318
0.10009518 0.040126503 0.17931247
0.097116023 0.037635267 0.16818011
0.11252049 0.035466135 0.15848678
-0.12311584 0.048366368 0.21427184
-0.10600066 0.047269344 0.20941192
-0.10375234 0.046860278 0.2076
-0.090585679 0.042362869 0.18767554
-0.089118689 0.042237937 0.18712211
0.10221067 0.0691185 0.30620807
0.10832492 0.070980728 0.31445795
0.11062387 0.068653464 0.30414778
0.11380079 0.036072731 0.15980905
-0.098736107 0.0455634 0.20013052
-0.091811061 0.043498397 0.1910603
-0.092072338 0.043817043 0.19246012
0.10906175 0.076342106 0.33532137
0.11776629 0.080323815 0.35281056
0.096906096 0.037786961 0.1659736
0.10470787 0.038838744 0.1705932
0.11187825 0.036203444 0.15901828
0.1153042 0.036864102 0.16192013
0.10795334 0.067358613 0.29335755
0.09994176 0.040337145 0.17567456
0.099036723 0.039526343 0.17214352
0.097143441 0.038203001 0.16638017
0.10259917 0.038116038 0.16600144
0.10447124 0.038022637 0.16559458
0.10425404 0.036461234 0.1587944
0.11286154 0.037286639 0.16238916
-0.075252622 0.056292832 0.24310583
-0.072650999 0.055107832 0.23798782
0.11714247 0.082317233 0.3554942
0.10459259 0.066981435 0.28926528
0.10462728 0.066609859 0.28766066
0.10527113 0.066628218 0.28773999
0.10810128 0.068022132 0.29375964
0.10870543 0.066849232 0.28869432
0.09964624 0.040106356 0.17320299
0.097998887 0.039008617 0.16846204
0.096861392 0.038135409 0.16469127
0.11326334 0.036941051 0.15953308
-0.1059739 0.048680067 0.20847875
-0.1034447 0.048125327 0.20610297
-0.074288994 0.056038678 0.23999286
0.099971205 0.040575027 0.17376775
0.098296791 0.03931123 0.16835546
0.10224631 0.038101256 0.16317344
0.10575017 0.038876534 0.16649365
0.10393044 0.037825644 0.16199327
0.11266652 0.037852585 0.16210866
0.11195752 0.037270546 0.15961581
-0.12125674 0.049687564 0.21103621
-0.10315618 0.050319195 0.21371901
0.11908492 0.083997846 0.35676092
0.10467866 0.067761719 0.2878021
0.10451564 0.067260981 0.28567505
0.10635492 0.067654192 0.28734523
0.10707155 0.067332387 0.28597826
0.097890645 0.039187908 0.16644132
0.098371059 0.037473679 0.15916055
0.099715859 0.037725031 0.16022819
0.11236539 0.038065732 0.16167533
0.11184803 0.037774384 0.16043758
-0.1022386 0.048151255 0.20283616
0.10606697 0.073549509 0.30982554
0.10451236 0.071577728 0.30151951
0.10691372 0.067788363 0.28555673
0.11097816 0.069180667 0.29142177
0.097708136 0.039012551 0.16433936
0.097608715 0.038833261 0.16358411
0.10137454 0.038145244 0.16068602
0.10318837 0.037069559 0.15615463
0.11196354 0.038125634 0.16060323
-0.10496128 0.049628019 0.20735854
-0.074912339 0.057920516 0.24200672
0.10875049 0.082743704 0.34572405
0.098558575 0.039817572 0.16636777
0.09857747 0.039682031 0.16580147
0.1054242 0.038938642 0.16269547
0.10334602 0.037797034 0.15792567
0.11330834 0.038312256 0.16007841
0.11370197 0.038329601 0.16015095
-0.072562724 0.057351649 0.23769873
0.10675886 0.08025229 0.33261245
0.10627386 0.066957474 0.277511
0.10014209 0.041535199 0.17214614
0.097395808 0.038826942 0.16092157
0.091928214 0.035518408 0.14720905
0.10393807 0.038322389 0.15883034
0.10322967 0.037329614 0.1547159
0.11106291 0.038795233 0.16079026
-0.10696244 0.050752997 0.20866865
-0.10530329 0.051029623 0.20980603
0.10638294 0.08225739 0.33819741
0.10040155 0.073158741 0.3007884
0.1054115 0.074890971 0.30791092
0.10425833 0.068511248 0.28168064
0.10559395 0.067822337 0.27884817
0.099980384 0.041497409 0.17061454
0.097940713 0.039638698 0.16297287
0.090259582 0.035034776 0.14404398
0.091280073 0.035310447 0.1451773
0.10346904 0.039488614 0.16235584
0.11060193 0.038945556 0.16012287
-0.10011977 0.046154022 0.18825501
-0.10998654 0.053271532 0.21728629
-0.072525024 0.059072793 0.24094898
0.10223511 0.074612379 0.30433261
0.10443822 0.06957984 0.28380543
0.10449162 0.068423152 0.27908754
0.10517362 0.039924502 0.16284585
0.10294744 0.037586749 0.15331066
0.10347548 0.03730458 0.15215981
0.11286357 0.039091945 0.15944999
0.1150243 0.039482653 0.1610437
-0.10011944 0.046519876 0.18825436
-0.10004807 0.047053993 0.19041586
0.1075606 0.081187844 0.32854706
0.10188016 0.074943066 0.30327612
0.10001615 0.042330325 0.17130035
0.099648505 0.041416645 0.16760284
0.10653999 0.040231407 0.16280639
0.10594371 0.038137734 0.15433407
0.1148915 0.039749861 0.16085786
-0.10044444 0.046849728 0.1881094
-0.10087314 0.048010647 0.19277042
-0.10131571 0.048418999 0.19441026
-0.10381183 0.050022244 0.20084739
-0.075372994 0.064189553 0.25773138
0.1018301 0.07549566 0.30312711
0.10630885 0.07454735 0.29931968
0.10606912 0.073934317 0.29685837
0.10416231 0.068507254 0.27506751
0.09847191 0.04037863 0.1621269
0.11175719 0.039803445 0.15981728
0.11335233 0.039763927 0.15965837
-0.10108057 0.047705531 0.19006163
-0.10188398 0.048870325 0.19470215
-0.10306004 0.049637198 0.19775736
-0.10845408 0.053106308 0.21157873
-0.076505542 0.065662742 0.26160407
0.10887733 0.085142553 0.33921283
0.10019043 0.042758286 0.17035151
0.10464206 0.039491534 0.15733677
0.10905668 0.039507151 0.15739876
0.11177114 0.040119231 0.15983725
0.11246184 0.040121853 0.1598478
0.1109921 0.086890042 0.34351408
0.10837856 0.083736181 0.33104545
0.10413375 0.077423692 0.30608946
0.10453925 0.06904912 0.27298135
0.099736184 0.042738855 0.16896522
0.099104434 0.042011797 0.16609085
0.096275836 0.039265573 0.15523368
0.10355034 0.039765656 0.15721089
0.10324922 0.038283467 0.15135139
0.10321108 0.038149834 0.15082282
0.10697094 0.03917253 0.15486616
-0.10299921 0.04858315 0.19060516
-0.091063142 0.051025927 0.20018882
0.10420826 0.078074634 0.30630851
0.10507527 0.076794386 0.30128568
0.1034725 0.068869948 0.27019584
0.12181166 0.07761085 0.30448908
0.099061161 0.042468369 0.16661513
0.095823616 0.039111912 0.15344697
0.1055744 0.038958311 0.15284431
-0.10514519 0.049973667 0.19457638
-0.10522893 0.050212145 0.19550467
-0.080517739 0.070199132 0.27332574
0.10455224 0.07843709 0.30540103
0.11063299 0.049945652 0.19446725
0.11064568 0.049764395 0.19376165
0.099869758 0.042230606 0.16442835
0.10237291 0.039917886 0.15542328
0.10456565 0.040379763 0.15722185
0.10598096 0.039285123 0.15295959
-0.10972309 0.052131832 0.20145434
-0.10845134 0.052770138 0.20392078
-0.10995582 0.053935707 0.20842487
-0.092402071 0.051124752 0.19756263
0.1049991 0.079368711 0.30670613
0.1049358 0.076919734 0.29724264
0.10428002 0.075524509 0.2918511
0.10319903 0.073858082 0.28541124
0.099786431 0.042217791 0.16314316
0.098683864 0.041318119 0.1596666
0.09582606 0.039439678 0.15240759
0.10531554 0.040075719 0.15486556
-0.093794256 0.053758979 0.20619273
-0.09469524 0.055051327 0.21114975
-0.094864219 0.055413723 0.21253949
0.10539708 0.080268145 0.30786878
0.099292666 0.069540918 0.26672447
0.10127631 0.06972909 0.26744628
0.11220148 0.073516667 0.28197342
0.10927752 0.050269544 0.19280899
0.10537878 0.040274501 0.15447301
0.11379281 0.042169094 0.16173959
-0.11522767 0.055569887 0.2115609
-0.11526164 0.055805326 0.21245706
-0.11228591 0.055234969 0.21028572
-0.091956228 0.051879764 0.19751197
-0.091595799 0.051914752 0.19764525
0.10879281 0.086720705 0.33015537
0.10824248 0.084100068 0.32017821
0.10392877 0.075946987 0.28913844
0.10514352 0.070542634 0.26856357
0.11040214 0.051554501 0.19627357
0.10009488 0.043287158 0.16479909
0.099836975 0.042576373 0.16209292
0.10182944 0.040087342 0.15261722
0.10219535 0.040103018 0.15267664
0.10491219 0.040269017 0.15330869
-0.11763516 0.057603002 0.21768963
0.10321799 0.074220479 0.28048956
0.10746685 0.07224071 0.27300769
0.11234286 0.074308038 0.28082037
0.11484101 0.057754993 0.21826422
0.10346499 0.047411621 0.1791749
0.1003361 0.043256044 0.16347045
0.10223177 0.040543675 0.15322024
0.10551032 0.040671349 0.1537028
0.10604653 0.040499747 0.15305418
-0.092410654 0.054406583 0.20411026
-0.095077127 0.05624193 0.21099579
0.10774711 0.086042464 0.32279438
0.10724291 0.069960773 0.26246303
0.10354558 0.052456975 0.19679624
0.1019446 0.051024139 0.19142085
0.096446365 0.039937556 0.14982879
-0.097811788 0.056408763 0.21008909
-0.080949605 0.069733799 0.25971681
-0.076611906 0.066452742 0.24749708
0.10832611 0.071935534 0.26791686
0.10470584 0.052577436 0.19581968
0.10909322 0.051877379 0.19321245
0.1097025 0.051198125 0.19068241
0.099718481 0.043170571 0.1607846
0.099910766 0.042957723 0.1599918
0.099725872 0.042731941 0.15915108
-0.092650682 0.044435501 0.16430604
-0.095441014 0.054935634 0.20313174
-0.089377254 0.051680505 0.19109541
-0.084501565 0.050238729 0.18576413
-0.07082513 0.063187122 0.23364252
-0.071728766 0.064447701 0.23830366
-0.070970207 0.064684689 0.23918027
0.10703745 0.071974993 0.26613671
0.10620359 0.055035651 0.2035014
0.10712662 0.050171554 0.18551588
0.10767695 0.049512982 0.18308073
0.099427074 0.042766511 0.15813488
0.098296076 0.04171288 0.15423876
0.10427627 0.040827513 0.15096498
0.1145182 0.0438869 0.16227758
-0.098565042 0.047253668 0.17347944
-0.097758383 0.047765374 0.175358
-0.096852481 0.055145502 0.20245206
-0.096188575 0.055013299 0.2019667
-0.084393293 0.050535083 0.18552613
-0.082334608 0.070503712 0.25883567
-0.081573159 0.070324183 0.25817662
-0.072618097 0.064345121 0.23622614
0.11200151 0.085896909 0.31534773
0.10777286 0.073774576 0.2708438
0.1053032 0.070940852 0.26044053
0.10614833 0.055176497 0.20256591
0.10318509 0.052775204 0.19374996
0.10999301 0.051314592 0.18838793
0.10336462 0.04076153 0.14964515
0.11094549 0.043216109 0.15865654
-0.086094201 0.050963759 0.18577385
-0.072902888 0.065058589 0.23715246
0.11104742 0.08577311 0.31266135
0.11226657 0.085177004 0.31048858
0.10951826 0.081172645 0.2958917
0.10826603 0.077126861 0.28114402
0.10823408 0.075022101 0.27347177
0.10934201 0.074980259 0.27331907
0.10568503 0.070956171 0.25865036
0.10766187 0.071166575 0.25941747
0.10730264 0.05687058 0.20730537
0.11293885 0.05487287 0.20002335
0.10877267 0.05129528 0.18698227
0.10961768 0.051316679 0.1870603
0.099777251 0.043682754 0.15923315
0.11935309 0.046680272 0.17015964
-0.10099161 0.049668789 0.17977923
-0.07628113 0.067155004 0.24307185
0.11155787 0.080933571 0.29294395
0.11170176 0.080138385 0.29006582
0.10813436 0.076727271 0.2777192
0.10286358 0.053793609 0.19470918
0.10249129 0.052122712 0.18866146
0.11291698 0.054835916 0.19848192
0.099686295 0.043215215 0.15642017
0.11348382 0.045816183 0.16583449
0.11166373 0.044525087 0.16116136
0.11214617 0.044579923 0.16135991
-0.10170147 0.049801469 0.17899966
-0.078827411 0.065848768 0.23667812
-0.080546051 0.069978952 0.25152296
-0.076359302 0.067696929 0.24332094
0.10810134 0.075584054 0.27166933
0.1076633 0.057396591 0.20629853
0.10287985 0.053530991 0.19240475
0.10244659 0.052673876 0.18932408
0.12056425 0.059861302 0.21515745
0.099422246 0.043697178 0.15705937
0.099657446 0.042930782 0.15430492
0.11756137 0.047647595 0.17125815
0.11646929 0.047058463 0.16914064
0.11551932 0.046530247 0.16724199
-0.10187802 0.049861372 0.17797142
-0.086656034 0.071517467 0.25526893
-0.076384574 0.063844323 0.22788107
0.10787794 0.09354037 0.33387578
0.11162153 0.089668632 0.32005614
0.11258933 0.085223198 0.30418897
0.10936615 0.080011189 0.28558582
0.11019436 0.078428507 0.27993655
0.10758683 0.071163177 0.25400412
0.10822752 0.057863593 0.20653367
0.10345045 0.054421663 0.19424844
0.10273126 0.053400278 0.19060308
0.10315874 0.053200662 0.18989027
0.10458735 0.053726017 0.19176543
0.09962979 0.043652296 0.15580899
0.098723978 0.042266488 0.15086251
0.096785337 0.041167498 0.14694017
0.11763814 0.04771477 0.17030948
-0.078815311 0.068069339 0.24128705
0.11085007 0.090219736 0.31980389
0.11222282 0.08807838 0.31221324
0.10882285 0.084406018 0.29919589
0.10755888 0.072368741 0.25652695
0.10386577 0.054799438 0.19424874
0.099592 0.043938518 0.15574992
0.099931687 0.043363631 0.15371215
0.097137541 0.041335821 0.14652401
0.10863903 0.095507741 0.33623117
0.10766068 0.08030498 0.28271025
0.10529843 0.075573742 0.26605445
0.10451952 0.071908116 0.25314957
0.10862246 0.07105267 0.25013804
0.10133997 0.050409794 0.17746556
0.10069993 0.049719214 0.1750344
0.1023412 0.050156891 0.1765753
0.10512856 0.050773978 0.17874771
-0.10049987 0.051361561 0.17958713
-0.07910642 0.068812191 0.2406038
0.10973325 0.085781336 0.29993647
0.10545287 0.077457547 0.27083236
0.10555384 0.077108443 0.26961178
0.1061857 0.075912356 0.26542932
0.11213234 0.062734723 0.21935362
0.10845771 0.059193909 0.20697302
0.1091862 0.059349418 0.20751673
0.10417989 0.055280805 0.19329083
0.10315016 0.054303765 0.18987429
0.10018298 0.050175309 0.17543942
0.097317904 0.041317344 0.14446723
-0.10174793 0.051371932 0.17841029
-0.081870764 0.0673244 0.23381209
-0.077614129 0.069325209 0.24076051
-0.082216024 0.074422419 0.25846291
0.10452494 0.071781576 0.24929112
0.10661897 0.072116733 0.25045532
0.1069248 0.07160449 0.24867648
0.11119559 0.062633574 0.21752119
0.10905424 0.060918033 0.21156305
0.10467264 0.056142509 0.19497824
0.09943673 0.044186354 0.15345544
0.097067088 0.041229486 0.14318633
-0.078105301 0.071178734 0.24553984
0.10750201 0.084195971 0.29044437
0.1073015 0.083556414 0.28823799
0.10379162 0.077273905 0.26656592
0.10481426 0.075547099 0.26060897
0.10447088 0.074507713 0.25702339
0.10414138 0.072369933 0.24964899
0.10424569 0.072073102 0.2486251
0.10749593 0.073200881 0.25251526
0.10792866 0.060445726 0.20851481
0.099456698 0.044493616 0.15348613
0.098301977 0.042437255 0.14639252
-0.099698901 0.051991403 0.17815584
-0.079717726 0.065637946 0.22491759
-0.078691691 0.071712375 0.24573231
0.11598161 0.097050726 0.33255786
0.12200037 0.10146523 0.34768474
0.10419312 0.073646247 0.25235891
0.099829406 0.070198417 0.24054474
0.10471097 0.072510839 0.24846834
0.10376087 0.055304229 0.18950742
0.10462287 0.055118144 0.18886995
0.10451093 0.054222226 0.18580014
0.099571913 0.044550061 0.15265685
0.099686056 0.043882132 0.15036821
-0.081509858 0.070985258 0.24163097
-0.081905991 0.072712302 0.2475099
-0.081584036 0.073374271 0.24976319
0.11569002 0.09805274 0.33376735
0.12307039 0.10179698 0.34651291
0.110603 0.061010897 0.20767862
0.10307744 0.055741191 0.18974054
0.10606173 0.056248426 0.19146729
0.10038736 0.044773996 0.15240878
-0.099803597 0.051751256 0.17500103
-0.085166007 0.068577111 0.2318989
-0.080272198 0.074625552 0.25235218
0.10117856 0.077268302 0.261289
0.10393831 0.074061692 0.25044531
0.10797265 0.073168159 0.24742383
0.10549471 0.058344007 0.19729501
0.10473755 0.056568563 0.19129115
0.10715619 0.057205021 0.19344324
0.10449472 0.0551458 0.18648005
0.10140941 0.045677364 0.1544618
0.098749667 0.043213189 0.14612907
-0.1004805 0.052444816 0.17618793
-0.10012397 0.052852988 0.17755914
-0.088098168 0.071822524 0.24128705
-0.081554651 0.070621967 0.23725379
-0.082312107 0.074521482 0.25035405
0.1210632 0.10332769 0.34712845
0.099641353 0.075347066 0.25312793
0.1088765 0.074631214 0.250723
0.11051163 0.062267184 0.20918614
0.10567406 0.058827519 0.19763047
0.10037914 0.045216203 0.15190345
0.10034439 0.045054793 0.15136129
0.099348873 0.043761373 0.14701575
0.098080426 0.042662859 0.14332545
-0.10071987 0.053112209 0.17727202
-0.099699944 0.053582251 0.17884082
-0.088102072 0.07358712 0.24561095
-0.083125859 0.075260401 0.25119603
0.10463557 0.080514789 0.26873326
0.099933118 0.074444532 0.24847257
0.1007683 0.0738886 0.2466172
0.11349156 0.065965176 0.22017127
0.11002865 0.062909007 0.20997089
0.11016425 0.062730789 0.20937574
0.10823682 0.060166717 0.20081788
0.10468736 0.057735741 0.19270402
0.1079438 0.058158875 0.19411612
0.09978202 0.044239163 0.14765668
0.098337144 0.042919815 0.14325315
-0.09982869 0.054207325 0.17976087
-0.093513668 0.074612856 0.24742872
0.09711197 0.090037763 0.29858065
0.10044071 0.075308084 0.24973452
0.10715076 0.072273493 0.23967111
0.10855988 0.062218308 0.20632643
0.10390249 0.058132172 0.1927762
0.10607877 0.058423042 0.19374067
0.10716924 0.057672858 0.19125289
0.1001325 0.045400679 0.15055627
0.10015431 0.045120537 0.14962739
-0.1015093 0.05422318 0.17866141
-0.10110101 0.054209113 0.1786148
-0.10031578 0.054404318 0.17925811
-0.099950582 0.054623544 0.1799804
-0.094895303 0.075774908 0.24967259
-0.084403008 0.07098949 0.23390514
-0.087586105 0.077331066 0.25480014
-0.08307907 0.073810697 0.24320078
-0.078955561 0.071947932 0.23706293
-0.082784265 0.078984916 0.2602492
0.10548005 0.092930675 0.30619949
0.11186311 0.090677738 0.29877609
0.10327801 0.076312542 0.25144422
0.10826907 0.073148966 0.24102038
0.099563986 0.055842519 0.18399692
-0.10073584 0.05456537 0.17864418
-0.10036352 0.054570496 0.17866111
-0.086072236 0.068783045 0.22519231
-0.085430264 0.069831967 0.22862655
-0.079825372 0.070492327 0.23078823
-0.081248194 0.078543663 0.25714815
0.098803729 0.090993702 0.2979089
0.11104557 0.088569224 0.28997117
0.11599037 0.069016278 0.2259559
0.10565212 0.062089324 0.20327729
0.1017656 0.045997024 0.15059203
0.10225907 0.045642614 0.14943177
0.097471267 0.042836726 0.1402452
0.09581092 0.041977882 0.13743341
-0.10138336 0.054849803 0.1784398
-0.099749178 0.055211961 0.1796177
-0.088098794 0.069681823 0.2266916
-0.082234651 0.066134691 0.21515208
-0.078224748 0.06825316 0.22204417
0.097708434 0.09295398 0.30240172
0.10970393 0.086133242 0.2802121
0.11105588 0.085331202 0.27760321
0.1074914 0.081289589 0.2644546
0.10665777 0.078192115 0.2543779
0.11246523 0.075520217 0.24568552
0.10427371 0.059705138 0.19423515
-0.085455865 0.068395019 0.22110683
-0.080100805 0.065932155 0.21314496
-0.089752674 0.076486826 0.24726593
0.098015159 0.093835592 0.30335099
0.10912755 0.097387791 0.31483442
0.11055538 0.086876512 0.28085369
0.10875085 0.084088743 0.27184147
0.1086655 0.082697272 0.26734316
0.10816029 0.07666862 0.2478537
0.10704711 0.073018491 0.23605371
0.10754511 0.060287595 0.19489723
0.1073027 0.0594607 0.1922242
0.10297599 0.04684037 0.1514253
-0.083048195 0.079661489 0.25592035
-0.085026294 0.082647502 0.26551342
0.11421695 0.099502504 0.3196618
0.11797312 0.099790215 0.32058597
0.11446229 0.095162332 0.30571842
0.1088644 0.082501709 0.26504505
0.10696939 0.074835002 0.24041486
0.10960701 0.074532032 0.23944157
0.11010417 0.074522078 0.2394098
0.099396497 0.058094978 0.18663621
0.099915892 0.057475984 0.18464738
0.11208066 0.05114156 0.16429722
0.11279836 0.050831914 0.16330272
-0.10012153 0.05603832 0.17891103
-0.099714607 0.056024492 0.17886698
-0.087208062 0.069145322 0.22075725
-0.081348091 0.065925837 0.21047848
-0.088391602 0.076273799 0.24351609
-0.080479652 0.07243216 0.23125094
-0.082268387 0.079932868 0.25519812
-0.081067979 0.079292178 0.25315273
0.10089877 0.096533537 0.30819839
0.11232862 0.10150468 0.32406956
0.1110597 0.082543492 0.26353317
0.10491738 0.073857903 0.23580277
0.10739484 0.07417655 0.2368204
0.099170595 0.058560133 0.18696237
0.099879175 0.05827409 0.18604916
0.099580795 0.057414293 0.18330413
0.11401537 0.051225781 0.16354644
-0.099732429 0.057484329 0.18239552
-0.083767951 0.066829979 0.21204895
-0.084000438 0.067380011 0.21379423
-0.080951661 0.06675005 0.21179533
-0.086763293 0.075333476 0.23903024
-0.081002802 0.072028399 0.22854322
-0.080488443 0.072889626 0.23127604
-0.080301583 0.075024188 0.23804885
0.11598077 0.10545558 0.33460629
0.11438146 0.10211241 0.32399863
0.10985968 0.084737003 0.26886719
0.10932937 0.083889186 0.26617718
0.11462376 0.087496281 0.27762228
0.11222139 0.084352434 0.26764703
0.10942712 0.079029262 0.25075674
0.10958841 0.078760028 0.24990243
0.098010808 0.059188485 0.18780285
0.10660157 0.05995661 0.19023985
0.11565354 0.05228436 0.16589624
-0.10003647 0.056685805 0.17875904
-0.084907293 0.067068219 0.21150023
-0.080949575 0.071138203 0.22433466
-0.078061789 0.072919548 0.22995222
0.10901073 0.10422844 0.32868481
0.13067892 0.11195886 0.35306269
0.11361745 0.095143735 0.30003637
0.11239806 0.093594313 0.29515034
0.11121324 0.089590728 0.28252488
0.10862401 0.083862185 0.26445991
0.11484066 0.08729887 0.27529746
0.11118045 0.082819104 0.26117057
0.11034885 0.081382453 0.25663996
0.10972431 0.078578234 0.24779701
0.10595265 0.07408905 0.23364019
0.098650366 0.059214711 0.18673402
0.099372953 0.059408128 0.18734384
0.10673502 0.061337829 0.19342905
0.11341807 0.051908433 0.16369337
-0.099643618 0.057027221 0.17873973
-0.099481404 0.058047175 0.18193644
-0.098356247 0.057615817 0.18058461
-0.085154206 0.06767571 0.21211523
-0.081621617 0.067008793 0.21002483
-0.081381649 0.06718123 0.21056539
-0.088086277 0.076972663 0.24125451
0.1264309 0.10835773 0.33962429
0.11473063 0.097213686 0.30469573
0.11222866 0.092982531 0.29143417
0.11188605 0.084278882 0.26415414
0.10893801 0.075225472 0.23577845
0.099758834 0.059524775 0.18656778
0.10482803 0.061323881 0.19220662
0.1135079 0.053421617 0.16743857
0.11215392 0.052453578 0.16440463
0.11333194 0.052838922 0.16561252
0.1152437 0.052741945 0.16530836
-0.098866791 0.057814062 0.18010831
-0.099431962 0.058371842 0.18184596
-0.089427441 0.077710986 0.24209332
-0.087543041 0.076516271 0.23837131
-0.084350795 0.075483263 0.2351532
-0.081440359 0.073757708 0.22977769
-0.090180129 0.083177865 0.25912428
-0.080900997 0.082190871 0.25604934
0.10849324 0.096888542 0.30183715
0.11135659 0.091803193 0.28599483
0.11084053 0.08400017 0.26168585
0.11054811 0.082941473 0.25838774
0.10556975 0.076162457 0.23726916
0.10526505 0.074863732 0.2332232
0.1075941 0.07406503 0.230735
0.099851757 0.059467852 0.18526059
0.10767838 0.062157333 0.1936388
-0.089021742 0.069038808 0.21378183
-0.082621962 0.067178845 0.20802259
-0.082728565 0.067629516 0.209418
-0.079016387 0.077111065 0.23877788
0.10859856 0.097570002 0.3021301
0.12104914 0.10441023 0.32331127
0.11109284 0.089202523 0.27621984
0.10735145 0.082683206 0.25603241
0.10793939 0.073406935 0.22730798
0.097403318 0.059063733 0.18289357
0.099222511 0.059687734 0.18482602
0.099423438 0.059571505 0.18446594
0.10042778 0.059699774 0.18486315
0.11494312 0.055103898 0.17063171
0.11463782 0.053431749 0.16545385
-0.10006732 0.058093965 0.17881423
-0.099675447 0.059223652 0.18229133
-0.0836806 0.067006946 0.2062484
-0.083034277 0.069414735 0.21365976
-0.082858264 0.075495839 0.23237711
-0.081542701 0.083282948 0.25634611
0.10542181 0.097607732 0.30043823
0.10571435 0.096700668 0.29764593
0.12953541 0.1130482 0.34796375
0.12301531 0.10613912 0.32669783
0.11036518 0.093630016 0.28819466
0.11124244 0.093850493 0.28887314
0.11102059 0.091629028 0.28203553
0.10606411 0.081766725 0.25167924
0.1050165 0.075591803 0.23267251
