# .PCD v0.7 - Point Cloud Data file format
VERSION 0.7
FIELDS x y z
SIZE 4 4 4
TYPE F F F
COUNT 1 1 1
WIDTH 1313
HEIGHT 1
VIEWPOINT 0 0 0 1 0 0 0
POINTS 1313
DATA ascii
0.043537669 -0.028486848 0.10941446
0.043959506 -0.028609186 0.10988438
0.04540088 -0.029390261 0.11288428
0.045797892 -0.02949053 0.11326939
0.046231963 -0.026542887 0.10194796
0.05335968 -0.02925618 0.11236942
0.045930974 -0.022012606 0.084547758
0.045563132 -0.019809902 0.076087475
0.045065366 -0.015326545 0.058867574
0.04586383 -0.015341118 0.058923483
-0.044970579 -0.032986611 0.12765074
-0.032433994 -0.028659299 0.11090511
0.045235217 -0.028910637 0.1118778
0.045625277 -0.02900663 0.1122492
0.046803512 -0.029293612 0.11335963
0.04626742 -0.026364848 0.10202616
0.046492733 -0.026368991 0.10204208
0.052675717 -0.028925881 0.11193669
0.045759462 -0.021766648 0.084232092
0.045906045 -0.021750778 0.084170759
0.045461334 -0.019759074 0.076463342
0.045651473 -0.019086972 0.073862314
-0.064101852 -0.030303404 0.11815625
-0.040566005 -0.032273024 0.12583643
-0.039777704 -0.032288164 0.12589508
-0.032383211 -0.02839914 0.11073148
-0.028042652 -0.026742503 0.10427207
0.045213677 -0.027103454 0.10567945
0.046175003 -0.027271032 0.10633284
0.046060994 -0.02617313 0.10205191
0.054290541 -0.029190585 0.11381739
0.044824012 -0.021499604 0.083829403
0.046070032 -0.019522071 0.076119006
0.045006737 -0.018740609 0.073071837
0.044807963 -0.015095711 0.058860004
0.045198984 -0.015142411 0.059042096
0.045260802 -0.015120894 0.058958232
0.045765758 -0.015121177 0.058959424
-0.065353684 -0.030302778 0.11905652
-0.061643459 -0.030865878 0.12126899
-0.062308542 -0.031463504 0.12361687
-0.047514461 -0.032739148 0.12862855
-0.033819444 -0.028396204 0.11156559
-0.031660683 -0.028172716 0.11068773
-0.030372702 -0.027646348 0.10861975
0.045280471 -0.021468073 0.084345937
0.045790613 -0.015014723 0.058991373
-0.065323107 -0.030057222 0.11900085
-0.065008976 -0.03002964 0.11889148
-0.064782985 -0.030042663 0.1189431
-0.06579911 -0.031124592 0.12322658
-0.061864711 -0.030611336 0.1211946
-0.059412636 -0.030416846 0.12042481
-0.039940096 -0.031713843 0.12555981
-0.032328166 -0.028126508 0.11135709
-0.030784108 -0.027595848 0.10925591
-0.028725483 -0.026556239 0.10513991
0.046885245 -0.028682366 0.11355758
0.046514057 -0.026922211 0.10658896
0.046571247 -0.025459006 0.10079581
0.05477751 -0.028876469 0.11432606
0.046124198 -0.021360859 0.084570706
0.046369657 -0.019283026 0.07634443
0.046579286 -0.019302294 0.076420546
-0.064749621 -0.029679537 0.1184172
-0.064199336 -0.029776514 0.11880392
0.044807039 -0.026380613 0.10525489
0.046152033 -0.026637509 0.10627991
0.04567264 -0.024890706 0.099310338
0.05355186 -0.02852197 0.11379856
0.0455897 -0.021116301 0.084251046
0.046205513 -0.018933609 0.07554245
0.045390725 -0.018470645 0.073695302
0.045587771 -0.014760479 0.05889219
0.045716152 -0.014761284 0.058895528
-0.065596111 -0.030550838 0.12284642
-0.060943611 -0.029816121 0.11989218
-0.045811541 -0.031951606 0.12847894
-0.044410668 -0.032534704 0.13082367
-0.030798234 -0.02760224 0.11098993
0.046503522 -0.02650173 0.10656482
0.046639226 -0.026449546 0.10635489
0.045652695 -0.025394991 0.10211438
-0.065165855 -0.030356169 0.1230256
-0.045079641 -0.032561556 0.13196343
-0.041213758 -0.031132728 0.12617266
-0.040051587 -0.031067997 0.12591022
-0.033386 -0.02736862 0.11091787
-0.031905077 -0.027318522 0.11071485
-0.030819513 -0.026989579 0.10938162
0.046481214 -0.026281908 0.10651368
0.046750039 -0.025082543 0.10165304
0.049346864 -0.026353374 0.10680324
0.054611444 -0.028124109 0.11397946
0.046249554 -0.02092427 0.084800541
0.045835562 -0.018819392 0.076270223
0.046581894 -0.018857598 0.076424897
0.045774542 -0.018465996 0.074837863
0.045246735 -0.01454322 0.058939934
-0.065110721 -0.029150471 0.11907762
-0.062021412 -0.028096899 0.11477357
-0.062002636 -0.029006183 0.11848807
-0.04096546 -0.031526461 0.12878323
-0.031272747 -0.02696611 0.11015463
-0.028818734 -0.025822073 0.10548121
-0.028298028 -0.025555432 0.10439199
0.045684874 -0.025015473 0.10218638
0.046593718 -0.024917513 0.1017862
0.045560859 -0.02069357 0.084531665
0.046374708 -0.02073434 0.084698141
0.044966035 -0.014419377 0.058902264
-0.064568348 -0.029723793 0.1223914
-0.061370082 -0.029320568 0.12073117
-0.045679517 -0.032679364 0.13456136
-0.041005246 -0.030687839 0.12636113
0.044459656 -0.02713491 0.11173153
0.045913458 -0.027432814 0.11295813
0.04663223 -0.024856105 0.10234827
0.045865297 -0.024220049 0.09972924
0.053593762 -0.027658537 0.11388761
0.045575239 -0.020535678 0.084558368
0.045181267 -0.018455356 0.075992286
0.045981333 -0.018515885 0.076241612
0.045773894 -0.017986149 0.07406038
-0.063967474 -0.029330209 0.12174565
-0.061609872 -0.029322743 0.12171471
-0.041809298 -0.030437663 0.12634248
-0.033114381 -0.026693791 0.11080229
-0.030292995 -0.026099339 0.10833472
0.045865245 -0.025698155 0.10666955
0.046964943 -0.024717093 0.10259718
0.053714015 -0.027498677 0.11414313
0.045298167 -0.020328015 0.084378898
-0.064417608 -0.028487086 0.11920786
-0.046152271 -0.030930907 0.12943453
-0.045590334 -0.03092505 0.12940997
-0.03355322 -0.026638731 0.11147344
-0.03271953 -0.026542306 0.11106974
0.046188496 -0.023889184 0.09996742
0.045790523 -0.02014254 0.084289253
0.045746453 -0.01825574 0.076393664
0.045122333 -0.017567754 0.0735147
0.045488253 -0.014120683 0.059090018
-0.063507982 -0.028766572 0.12136477
-0.046867348 -0.030785531 0.12988287
-0.033010863 -0.026369393 0.11125153
-0.032708742 -0.026317641 0.11103314
-0.030192249 -0.025789797 0.10880607
0.044719569 -0.026638016 0.11238474
0.045390792 -0.02527307 0.10662609
0.044737652 -0.019910991 0.084003627
0.046405964 -0.018109709 0.076404154
0.044790812 -0.013985217 0.059003055
-0.06355729 -0.027869701 0.11855364
-0.059327401 -0.028268978 0.12025201
0.053856738 -0.026661977 0.11341619
0.054268174 -0.026625961 0.11326301
0.04550197 -0.019925103 0.08475852
0.046443276 -0.019940361 0.08482331
0.04643961 -0.019861236 0.084486902
0.04545974 -0.013882205 0.059052944
-0.064052381 -0.027743906 0.11900276
-0.061706625 -0.028301209 0.12139314
-0.060353138 -0.027915165 0.11973751
-0.059361212 -0.027930155 0.11980158
-0.058674641 -0.027847335 0.11944646
-0.047397174 -0.030088112 0.12905782
-0.046299689 -0.030091897 0.12907422
-0.040438257 -0.029637709 0.12712586
-0.027890317 -0.024177596 0.10370564
-0.030077614 -0.026282579 0.11273468
0.045470223 -0.023825347 0.10219485
0.046473593 -0.023892015 0.10248077
0.046460204 -0.023443162 0.10055554
0.05328723 -0.026399493 0.11323625
0.045615278 -0.019653007 0.084298313
0.046293169 -0.017832071 0.076487541
0.046243697 -0.017688051 0.075869977
0.045052759 -0.013758719 0.05901587
0.04604283 -0.013790801 0.059153497
-0.065995418 -0.02768746 0.11975926
-0.061519451 -0.028217301 0.12205142
-0.045707233 -0.029814437 0.12895942
-0.041238673 -0.029380023 0.1270805
0.047147624 -0.026400566 0.11419314
0.04542423 -0.024546042 0.10617167
0.046153009 -0.023753226 0.10274231
0.054969065 -0.02676253 0.11575854
0.044495553 -0.019393727 0.083885729
0.045536943 -0.019610554 0.084823668
0.04588303 -0.019603521 0.08479315
0.045446195 -0.017735586 0.076713622
0.046233572 -0.017294124 0.074804187
0.04550761 -0.013666958 0.059115112
0.046120942 -0.013661474 0.059091568
-0.066516392 -0.02745831 0.11977553
-0.061789118 -0.028343037 0.12363493
-0.063450716 -0.029871732 0.1303032
-0.044972517 -0.029443607 0.12843543
-0.040791877 -0.029201999 0.12738156
-0.032449894 -0.025624529 0.11177641
-0.031986363 -0.025635973 0.1118263
0.044558659 -0.025809914 0.11258507
0.046532184 -0.025971264 0.11328894
0.045542739 -0.02440311 0.10644859
0.054610476 -0.026483521 0.11552346
0.054842912 -0.026476502 0.11549294
0.044819765 -0.019292995 0.084157884
0.046110034 -0.017282158 0.075386405
0.046118304 -0.017105907 0.074617684
-0.063494153 -0.02702868 0.1189099
-0.059451677 -0.02727282 0.11998421
-0.04787115 -0.029628709 0.13034838
-0.047197647 -0.029555812 0.13002807
-0.041698106 -0.028827935 0.12682557
-0.030908532 -0.025125235 0.1105361
0.046035074 -0.025609151 0.11266488
0.046389095 -0.025671795 0.11294055
0.048012987 -0.023730323 0.1043992
0.05436828 -0.026381001 0.11606055
0.045536421 -0.019280463 0.084822655
0.045546688 -0.013448596 0.059165895
-0.045484029 -0.029273346 0.12989628
-0.040713184 -0.028651267 0.12713587
-0.039772965 -0.028561503 0.12673748
-0.027334504 -0.023088783 0.10245317
0.0465867 -0.025694326 0.11401492
0.047028556 -0.025803059 0.11449736
0.046168946 -0.024078444 0.10684478
0.046411239 -0.024085671 0.10687685
0.045649216 -0.023121208 0.10259718
0.045746259 -0.019051939 0.084540427
0.046529777 -0.019151345 0.084981382
0.046373092 -0.017206162 0.076350033
0.045243002 -0.016611502 0.073711276
0.044622205 -0.013246819 0.058780968
0.045163825 -0.013295323 0.058996141
0.045776911 -0.013326973 0.059136629
0.045889057 -0.013322845 0.059118152
-0.065935306 -0.02673164 0.11965024
-0.063513853 -0.029269144 0.13100785
-0.027776726 -0.023075029 0.10328335
-0.0626489 -0.088701844 0.39702648
0.041977145 -0.023568675 0.10549277
0.045376942 -0.023695618 0.1060611
0.046468385 -0.023790181 0.10648423
0.046831064 -0.022644937 0.10135812
0.046407819 -0.018936366 0.084758639
0.046296686 -0.017089769 0.076493442
0.046473779 -0.017094761 0.076515794
0.046170808 -0.013216197 0.059155464
-0.04692293 -0.028799325 0.13003689
-0.032047085 -0.024813309 0.11203855
0.042145133 -0.023457035 0.10591489
0.04524789 -0.024784595 0.11190921
0.046468019 -0.02369906 0.10700762
0.045706429 -0.022750705 0.10272574
0.054757714 -0.02531071 0.11428469
0.044743367 -0.018681675 0.08435297
0.045591392 -0.016982809 0.07668215
0.046489507 -0.01695171 0.076541722
-0.06620077 -0.026169136 0.1192072
-0.065726496 -0.026387915 0.12020373
-0.063765742 -0.026215553 0.1194185
-0.060341202 -0.026505083 0.12073773
-0.059624039 -0.026530474 0.1208533
-0.05963663 -0.02712363 0.12355518
-0.046480201 -0.028277174 0.12880993
-0.043748565 -0.028470337 0.12968975
-0.031212069 -0.02431798 0.11077482
-0.0284032 -0.023001939 0.10477996
-0.027288757 -0.022453532 0.10228169
-0.060552217 -0.086586624 0.39442402
0.043159567 -0.023810759 0.1084643
0.045046285 -0.024587542 0.11200261
0.046423286 -0.023468375 0.10690457
0.047003083 -0.022646815 0.10316217
0.054694913 -0.02505973 0.11415368
0.045848154 -0.018600151 0.084728658
0.045425802 -0.012990028 0.059173167
0.045593403 -0.013001785 0.059226573
0.045728914 -0.013004288 0.059238136
0.045958176 -0.012997538 0.059207261
-0.065889917 -0.026117131 0.12003338
-0.064130999 -0.026027992 0.11962378
-0.059924431 -0.026200965 0.12041879
-0.062052704 -0.027605772 0.12687534
-0.043740831 -0.028035536 0.12885046
-0.031783201 -0.024358898 0.1119526
-0.060604967 -0.085894525 0.39476782
0.044808559 -0.024112999 0.11082256
0.045586683 -0.024402738 0.11215419
0.04696922 -0.022430047 0.1030879
0.047507085 -0.022580981 0.10378152
0.045315102 -0.018439576 0.084747851
0.046540387 -0.018422723 0.084670186
0.045473799 -0.016176358 0.074346125
0.046183936 -0.016314968 0.07498312
0.044828407 -0.012812704 0.058886826
-0.065372922 -0.025781035 0.11955714
-0.064956315 -0.025818571 0.11973125
-0.063119985 -0.026010931 0.12062335
-0.061451964 -0.025532171 0.11840296
-0.061291628 -0.026789412 0.12423337
-0.062207766 -0.027669296 0.1283139
-0.046402566 -0.027895093 0.12936103
-0.044862218 -0.027797267 0.12890732
-0.043822177 -0.02783671 0.12909007
-0.041342132 -0.02765426 0.12824392
-0.030825056 -0.023954496 0.11108661
-0.028405227 -0.022596106 0.10478747
0.046401918 -0.022169128 0.10280722
0.055585209 -0.025471002 0.11811936
0.045541711 -0.01657711 0.076874852
0.046428122 -0.01654166 0.076710582
0.046821684 -0.016564921 0.076818287
-0.064395912 -0.025566489 0.11964095
-0.059649773 -0.025836691 0.12090546
-0.041464187 -0.027126104 0.12693942
-0.041215993 -0.027141333 0.12701064
-0.039660625 -0.027191684 0.12724614
-0.033674039 -0.024077863 0.11267489
-0.029932775 -0.02323024 0.10870832
0.047164507 -0.025885031 0.12113172
0.045281708 -0.022730529 0.10636985
0.047013588 -0.022049993 0.10318524
0.045914702 -0.021334425 0.099836707
0.046557389 -0.018170714 0.085031748
0.044519886 -0.0154998 0.072533131
0.045049645 -0.012610406 0.059011817
-0.065824471 -0.025391728 0.11991411
-0.065272994 -0.025376588 0.11984277
-0.060477041 -0.025514528 0.12049419
-0.061663665 -0.026932687 0.1271916
-0.058574863 -0.025696874 0.12135547
-0.043890826 -0.027206227 0.12848336
-0.040758051 -0.026950568 0.127276
-0.033230953 -0.023714468 0.11199319
-0.02750089 -0.021826416 0.10307682
0.046487249 -0.022668123 0.10705191
0.04559914 -0.021701008 0.10248464
0.04722359 -0.021844491 0.10316223
0.054019891 -0.023873597 0.11274481
0.046069697 -0.018027917 0.085138083
0.046372414 -0.018004134 0.085025847
0.046452686 -0.017895043 0.084510684
-0.064027168 -0.025360361 0.12087584
-0.061379261 -0.024914727 0.11875194
-0.060909607 -0.02482672 0.11833262
-0.06067089 -0.025361255 0.12088048
-0.045012064 -0.026970059 0.12854844
-0.044799425 -0.027007535 0.1287269
-0.042653762 -0.026869088 0.1280672
-0.041704081 -0.026612416 0.12684375
-0.041391753 -0.026938483 0.12839788
-0.040953659 -0.027011529 0.12874609
-0.028628774 -0.022157937 0.1056121
0.047891416 -0.025251254 0.12035584
0.046489544 -0.016115516 0.076812088
0.045262486 -0.01240471 0.059125006
0.045869842 -0.012432277 0.059256613
-0.061302967 -0.025280371 0.12162191
-0.059714623 -0.025050268 0.12051481
-0.058607258 -0.025017396 0.12035656
-0.057983257 -0.024860114 0.11960012
-0.047636293 -0.026961401 0.12970889
-0.046614237 -0.027011693 0.12995118
-0.043672182 -0.026740849 0.12864828
-0.042759217 -0.026685923 0.12838382
-0.040486284 -0.026634783 0.12813783
-0.031473421 -0.023218483 0.11170238
-0.030985408 -0.023033217 0.11081094
0.047862053 -0.025411353 0.12225211
0.046460293 -0.021396428 0.10293663
0.054990798 -0.023856401 0.11477119
0.043904021 -0.012055501 0.05799824
-0.066151567 -0.024623185 0.1195789
-0.06316907 -0.024857625 0.12071717
-0.060983084 -0.025234237 0.12254614
-0.047773756 -0.026943088 0.13084465
-0.04749579 -0.026944011 0.13084942
-0.039806582 -0.026119396 0.12684458
-0.031543233 -0.02305235 0.11195016
-0.030820198 -0.022870928 0.11106908
-0.030093245 -0.022859707 0.11101454
-0.02720543 -0.020997137 0.10196942
0.04681588 -0.024489716 0.1189307
0.046113133 -0.023238838 0.11285597
0.045855373 -0.022069961 0.10717934
0.04655733 -0.021240562 0.10315162
0.048305884 -0.021628633 0.10503608
0.054743178 -0.023632228 0.1147663
0.046016611 -0.017442182 0.084705472
0.046311326 -0.017485097 0.08491385
0.045574434 -0.015841141 0.076930106
0.045536354 -0.012214333 0.059317172
-0.064950444 -0.024419561 0.1197204
-0.064496495 -0.024441496 0.11982781
-0.062839903 -0.024595052 0.12058061
-0.060748853 -0.024072841 0.11802024
-0.059792884 -0.023892403 0.11713582
-0.061057217 -0.02513431 0.12322438
-0.043123804 -0.026241511 0.12865287
-0.04149843 -0.025913402 0.12704408
-0.032843359 -0.022740796 0.11149007
-0.032691874 -0.022801384 0.1117869
-0.02939821 -0.022656813 0.11107808
0.045843422 -0.023373857 0.11459357
0.055343159 -0.023988098 0.11760497
0.055314742 -0.023653507 0.11596459
0.04529769 -0.017279491 0.084715307
0.045575082 -0.017316088 0.084894657
0.045783974 -0.0155949 0.076456249
0.04549031 -0.015117183 0.074114144
0.044908404 -0.012032658 0.058991909
0.04541605 -0.012100726 0.059325635
0.045947991 -0.012107253 0.059357584
-0.065124996 -0.024251834 0.12004215
-0.061115615 -0.024087295 0.11922789
-0.060477741 -0.024552539 0.12153065
-0.061248012 -0.025299922 0.12523001
-0.058657117 -0.024443269 0.1209901
-0.047260039 -0.026303947 0.13019997
-0.04488311 -0.026054934 0.1289674
-0.043405481 -0.025995463 0.12867266
0.046650454 -0.023813054 0.11787039
0.046018727 -0.02079533 0.10293311
0.047457948 -0.020945013 0.10367417
0.045925975 -0.012019262 0.059493423
0.045965634 -0.011996448 0.059380412
-0.065389208 -0.024021223 0.12005615
-0.064351477 -0.024016947 0.12003511
-0.061513223 -0.023910999 0.11950523
-0.060988434 -0.024006039 0.11998034
-0.057643242 -0.024001271 0.11995643
-0.039881475 -0.025427222 0.1270833
-0.0330377 -0.022439271 0.11214978
-0.032735206 -0.022396311 0.11193514
-0.031478293 -0.022353187 0.11171967
-0.029160388 -0.022224531 0.11107647
0.045891859 -0.02146183 0.10726458
0.046646148 -0.021492466 0.10741782
0.056433864 -0.02388607 0.11938059
0.045607872 -0.015403703 0.076986551
0.044629283 -0.011762917 0.058790326
0.045193665 -0.011844993 0.059200406
0.046134584 -0.011891842 0.059434474
-0.058558859 -0.023932651 0.12078738
-0.042792059 -0.025621757 0.12931228
-0.041469224 -0.025488168 0.12863821
-0.040505551 -0.025574163 0.12907183
-0.028287657 -0.021349862 0.10775214
0.04678648 -0.02124311 0.1072132
0.046912275 -0.02119638 0.10697752
0.048105523 -0.020725414 0.10460037
0.048986495 -0.021007314 0.10602325
0.056612782 -0.023728922 0.11975908
0.045663111 -0.015217587 0.076802731
0.046430118 -0.015199974 0.07671392
0.04709851 -0.01531066 0.077272475
0.04585807 -0.011770502 0.059405446
0.046177246 -0.011754781 0.059326231
-0.058822297 -0.023909867 0.12186801
-0.040680669 -0.025090858 0.1278879
-0.040336974 -0.025047243 0.12766522
-0.030393548 -0.021656245 0.11038184
0.046878025 -0.020281151 0.10337257
0.046006121 -0.011692658 0.059597194
0.04636009 -0.01168552 0.059561074
-0.061351843 -0.023249522 0.11968881
-0.039431609 -0.024574876 0.12651128
-0.032915972 -0.021863475 0.11255318
-0.031372197 -0.021793753 0.11219418
-0.030902706 -0.021632969 0.11136639
-0.028987475 -0.021448642 0.11041784
0.046166867 -0.020753667 0.1068399
0.046659529 -0.020081177 0.10337806
0.047313645 -0.020171672 0.10384375
0.045467131 -0.015016824 0.077306867
0.044852294 -0.014760137 0.075985253
0.045552753 -0.014936566 0.076893508
0.045117371 -0.011512488 0.059266388
0.045843191 -0.011567771 0.05955106
-0.062808447 -0.023176759 0.12052023
-0.060492449 -0.023276746 0.1210404
-0.046186365 -0.024614349 0.12799561
-0.045359291 -0.024911314 0.12954003
-0.042869367 -0.024912432 0.12954581
-0.033020623 -0.021555886 0.11209184
-0.030349649 -0.021196425 0.11022234
-0.028788172 -0.020917714 0.10877311
0.055931129 -0.022650689 0.11778462
0.04613436 -0.016331017 0.084922194
0.046497427 -0.016331032 0.084922254
0.04604923 -0.014788166 0.07689923
0.045242958 -0.014175087 0.073711157
-0.066688888 -0.023037091 0.12101775
-0.063979127 -0.022900447 0.1202997
-0.062556006 -0.022944316 0.12053025
-0.061728798 -0.024562806 0.12903255
-0.044502296 -0.024644867 0.12946332
-0.043400757 -0.024491698 0.12865871
-0.042927943 -0.024535775 0.12889034
-0.040994085 -0.024368718 0.12801307
-0.031924225 -0.02140601 0.11244935
0.045951009 -0.020343751 0.10686892
0.04645133 -0.020463541 0.10749823
0.046132423 -0.019737273 0.10368317
0.05504737 -0.022067368 0.11592352
0.046360172 -0.01618135 0.085003436
0.046122029 -0.014661774 0.077020824
0.046603493 -0.0146579 0.07700032
0.046978228 -0.01467213 0.077075064
0.04475265 -0.011254013 0.059119284
-0.06491629 -0.022906482 0.12157339
-0.06246797 -0.022771761 0.12085831
-0.06159579 -0.022641122 0.12016457
-0.060380466 -0.023059726 0.12238657
-0.046610437 -0.024483055 0.12994057
-0.045760401 -0.024474025 0.12989265
-0.031571038 -0.021111935 0.11204886
-0.029997684 -0.020687521 0.1097964
-0.029704951 -0.020647168 0.10958219
0.046382956 -0.01954788 0.10374784
0.046864398 -0.01956369 0.10383195
0.045462489 -0.016019851 0.085023463
0.044796459 -0.01435107 0.076166511
0.044608139 -0.011134565 0.059095204
0.044706441 -0.011127561 0.059058249
-0.065848298 -0.022368819 0.11995763
-0.06579604 -0.022438481 0.12033087
-0.060827918 -0.022793368 0.1222344
-0.060341723 -0.022807151 0.12230802
-0.059932299 -0.022850364 0.12253988
-0.060644962 -0.023638591 0.12676698
-0.041947119 -0.023790747 0.12758297
-0.040318854 -0.023795411 0.12760788
-0.03334824 -0.020957425 0.11238849
-0.032859422 -0.020952061 0.11235982
-0.03011138 -0.02039209 0.109357
-0.030220889 -0.020626351 0.11061335
0.046655484 -0.020034492 0.10743922
0.046177447 -0.019540697 0.1047911
0.046452112 -0.019375011 0.10390252
0.054001026 -0.021205679 0.11372
0.046869822 -0.014389679 0.077167869
0.044606633 -0.01101926 0.059093237
0.046012141 -0.011114657 0.059605062
0.046116397 -0.011109114 0.05957514
-0.06511838 -0.022236571 0.12050468
-0.05884961 -0.022498608 0.12192458
-0.041476779 -0.023741767 0.12866163
0.044365898 -0.020574167 0.11149591
0.045220964 -0.020638138 0.11184257
0.053314112 -0.020811304 0.11278111
0.054418065 -0.021051884 0.11408478
0.046140127 -0.014218092 0.077051044
-0.060635276 -0.022152215 0.12132615
-0.06049373 -0.02298525 0.12588835
-0.043106146 -0.023331553 0.12778538
-0.03199362 -0.02057609 0.11269379
-0.029411204 -0.02012749 0.11023694
0.045448609 -0.019493029 0.10676193
0.046508327 -0.019554839 0.10710037
0.045858257 -0.018818378 0.10306698
0.054799393 -0.020882472 0.11437172
0.045854539 -0.015533626 0.085076571
0.046798296 -0.015605778 0.085471749
0.04659915 -0.014107555 0.077266037
-0.064835377 -0.021759421 0.12045747
-0.059640236 -0.021931872 0.1214121
-0.046690978 -0.023236081 0.12863213
-0.0432368 -0.023300707 0.12898999
-0.042749234 -0.023335576 0.12918288
-0.040333606 -0.023059487 0.12765461
-0.029851966 -0.019737229 0.109263
0.043812618 -0.019996837 0.11070007
0.046157382 -0.019391477 0.10734898
0.046426423 -0.019408047 0.10744065
0.04683318 -0.018395245 0.10183388
0.052511968 -0.020249352 0.11209792
0.045494527 -0.01536943 0.085083425
0.04553885 -0.013885781 0.076870024
0.046255834 -0.01076442 0.059590697
-0.065847255 -0.021519348 0.12042457
-0.058726318 -0.022034481 0.12330729
-0.045442231 -0.022371247 0.12519193
-0.042795844 -0.02310954 0.12932372
-0.031836785 -0.020039156 0.11214137
-0.031652845 -0.020074502 0.1123392
-0.030101933 -0.019688278 0.11017799
0.046073489 -0.019147888 0.10715377
0.047047287 -0.01862672 0.10423714
0.045826167 -0.017889082 0.10010946
0.056035925 -0.021473616 0.12016881
0.054575615 -0.020818576 0.11650318
0.04661195 -0.015272185 0.085465133
0.04684408 -0.015288353 0.085555375
0.045741834 -0.013797566 0.077212691
0.045952842 -0.010666907 0.059693515
0.046096757 -0.010641217 0.059549809
-0.060594656 -0.021708727 0.12282062
-0.047042288 -0.022772878 0.12884134
-0.046549685 -0.022801355 0.12900251
-0.046006851 -0.022943184 0.12980479
-0.04544694 -0.022940606 0.12979037
-0.04334829 -0.022713125 0.12850314
-0.043118931 -0.022736967 0.12863833
-0.04134997 -0.02267158 0.12826818
-0.039589532 -0.022450596 0.12701803
-0.033704333 -0.020076916 0.11358863
-0.033223607 -0.019934162 0.11278087
-0.03253258 -0.019953847 0.11289239
0.045649789 -0.013718948 0.077617347
0.045780338 -0.013658911 0.07727766
-0.066370763 -0.021135792 0.12090939
-0.062813975 -0.02124387 0.12152773
-0.061049215 -0.020994261 0.12009996
-0.045922928 -0.021858454 0.12504363
-0.046252109 -0.022674993 0.12971455
-0.043242581 -0.022551358 0.12900716
-0.043286823 -0.022719294 0.12996793
-0.040806897 -0.022425011 0.12828475
-0.02977962 -0.019203842 0.10985762
-0.029434361 -0.019132093 0.10944694
0.046712704 -0.018804178 0.10757107
0.046686448 -0.018520117 0.10594624
0.046613313 -0.018225893 0.10426313
0.045370571 -0.014892161 0.085192144
0.045486033 -0.01487039 0.085067511
0.045770869 -0.013554752 0.077541471
0.04504548 -0.010402083 0.059506118
0.04603371 -0.010453165 0.059798539
0.046134718 -0.010447115 0.059763849
-0.064645745 -0.020927876 0.12106663
-0.059319697 -0.021627635 0.12511468
-0.040689774 -0.022111997 0.12791651
-0.032182433 -0.01944907 0.11251181
0.043745182 -0.019106463 0.11052966
0.044300519 -0.019040525 0.11014831
0.046401069 -0.018562332 0.10738188
0.058626585 -0.021341756 0.12346095
0.046055309 -0.014712587 0.085111499
0.045975782 -0.013464034 0.077888608
0.045292266 -0.01031357 0.059663653
-0.062183537 -0.020734325 0.12131125
-0.060566194 -0.020802215 0.12170845
-0.059296466 -0.020722076 0.12123984
-0.044458471 -0.022105873 0.12933582
-0.04324358 -0.022191674 0.12983811
-0.029606201 -0.018815681 0.1100859
0.044630952 -0.018866524 0.11038327
0.046149574 -0.01834479 0.10733074
0.046821646 -0.017814949 0.10423076
0.047153294 -0.017772004 0.10397953
0.046452902 -0.013800532 0.080743432
0.045708649 -0.013283297 0.077717483
0.045505993 -0.010216951 0.059776902
-0.060429849 -0.020697027 0.12248659
-0.060521759 -0.021001458 0.12428826
-0.044188119 -0.021857426 0.12935358
-0.039781235 -0.021566659 0.12763309
-0.028771527 -0.018222019 0.10783929
-0.027578957 -0.017751127 0.10505259
0.044594541 -0.018735707 0.11087942
0.045168862 -0.01877743 0.11112624
0.046259351 -0.018179223 0.10758609
0.047817513 -0.017568901 0.10397416
0.056931473 -0.020258501 0.11989117
0.043546818 -0.013283476 0.078612685
0.046667635 -0.013913363 0.0823403
-0.064780332 -0.020102873 0.12035513
-0.059200667 -0.020306662 0.12157524
-0.045754023 -0.021692917 0.12987465
-0.045158185 -0.021673366 0.12975776
-0.043256901 -0.021693498 0.12987804
-0.040447809 -0.021382451 0.12801605
-0.033294491 -0.018877923 0.11302149
-0.030091666 -0.018396735 0.11014032
0.04530333 -0.017865077 0.10695773
0.056932472 -0.019935995 0.1193561
0.045482248 -0.014264628 0.085401773
0.046482496 -0.01429154 0.085563004
0.045371912 -0.0099831223 0.059768558
0.046381831 -0.0099804997 0.059753001
-0.063881822 -0.020153508 0.12207919
-0.060287006 -0.019745246 0.11960626
-0.060744844 -0.020151511 0.12206745
-0.060528822 -0.020341948 0.1232211
-0.04606209 -0.021454602 0.12996066
-0.045002632 -0.021479219 0.13010985
-0.040732153 -0.021139145 0.12804973
-0.040446945 -0.021133065 0.12801331
-0.031050928 -0.018473148 0.11190057
-0.029193439 -0.018063709 0.10942072
0.047477722 -0.019803718 0.11996061
0.046451472 -0.01896596 0.11488587
0.047520176 -0.017217889 0.1042971
0.044345677 -0.013801634 0.083603203
0.045976102 -0.013095438 0.079325259
0.045582563 -0.012702271 0.076943874
0.046504773 -0.012729585 0.077109575
-0.064417951 -0.01976043 0.1211248
-0.046010323 -0.021178052 0.12981457
-0.039509453 -0.020822689 0.12763637
-0.039175041 -0.020789996 0.12743598
-0.03256046 -0.018433154 0.11298913
-0.028401531 -0.0177944 0.10907394
-0.027327187 -0.017553598 0.10759753
0.046891645 -0.018920183 0.11597455
0.046274655 -0.016491771 0.10108924
0.057794049 -0.020035863 0.12281328
0.045940988 -0.0130274 0.079853654
0.046105258 -0.012605682 0.077268541
0.046519913 -0.01262857 0.07740891
0.046749867 -0.012601346 0.077242196
-0.064946987 -0.01952827 0.12114596
-0.060543902 -0.019781679 0.1227178
-0.045357801 -0.021008939 0.13033134
-0.044317581 -0.020912468 0.12973261
-0.041038997 -0.020657867 0.12815326
-0.028942339 -0.01868397 0.11590785
0.047200635 -0.016857445 0.10457689
0.047383316 -0.016763881 0.10399669
0.046899982 -0.012535408 0.077764809
0.046945572 -0.012459278 0.077292621
0.0460639 -0.0096456409 0.059837759
-0.060667761 -0.01916787 0.12036163
-0.046141304 -0.02073209 0.13018411
-0.041891791 -0.020558372 0.12909311
-0.04138764 -0.020445585 0.12838513
-0.032987826 -0.018095762 0.11362934
-0.029934682 -0.017448619 0.10956579
0.046715483 -0.016882658 0.10601211
0.054454416 -0.018262222 0.11467475
0.045310564 -0.013441175 0.084402025
0.045598507 -0.013159871 0.082635343
0.044785909 -0.012679771 0.079620719
0.04574997 -0.012663975 0.079521656
0.046094023 -0.012435853 0.078088939
0.044750631 -0.0094678998 0.059452355
0.045054771 -0.0095052719 0.059686899
0.045859791 -0.0095400214 0.059905291
0.046395242 -0.0095185041 0.059770286
-0.064386137 -0.019515038 0.1240564
-0.061120845 -0.018914849 0.12024087
-0.060727842 -0.018872574 0.11997217
-0.060275652 -0.019136071 0.12164706
-0.059573837 -0.019161209 0.12180692
-0.059202738 -0.019125417 0.12157953
-0.061047278 -0.020163864 0.1281805
0.047491089 -0.016396731 0.10423321
0.047018245 -0.016157672 0.10271358
0.054610491 -0.018009871 0.11448818
0.045535915 -0.01318565 0.083820581
0.046352856 -0.013112649 0.083356678
0.045960195 -0.012613714 0.080184937
0.045252286 -0.0094037652 0.059779286
-0.065524139 -0.018690839 0.12030393
-0.06399972 -0.018847704 0.12131357
-0.064008273 -0.019239947 0.12383837
-0.060269691 -0.019062132 0.12269348
-0.046660639 -0.020209804 0.13008052
-0.044314392 -0.020154268 0.12972319
-0.040689133 -0.020007685 0.12877983
-0.028631411 -0.017514572 0.11273277
-0.02916003 -0.01845935 0.11881375
-0.029926665 -0.019111082 0.12300861
-0.030807666 -0.019848019 0.12775218
0.046593204 -0.016752318 0.10782653
0.046723865 -0.01623711 0.10451037
0.047454335 -0.016181499 0.1041525
0.047324166 -0.014382869 0.092575669
0.045905426 -0.012215212 0.078623414
0.046233423 -0.0093050003 0.059891641
-0.064724423 -0.018522382 0.12073076
-0.064324878 -0.019172475 0.12496763
-0.060888834 -0.018934563 0.1234169
-0.060734637 -0.018968776 0.12364
-0.060387142 -0.019025818 0.12401181
-0.045686074 -0.018974721 0.12367892
-0.04629261 -0.019918144 0.1298281
-0.045653693 -0.019881591 0.1295898
-0.040860064 -0.019706994 0.12845188
-0.032559164 -0.017333999 0.1129846
-0.02902972 -0.017536014 0.11430109
0.047291741 -0.01325126 0.086373031
0.046489693 -0.012875766 0.083925307
0.044125475 -0.012081116 0.078745842
0.044407442 -0.012112096 0.078947902
0.045389898 -0.012014806 0.078313887
0.045988157 -0.012084082 0.078765213
0.062168889 -0.013639584 0.088904083
0.062008977 -0.01352185 0.088136613
0.046358876 -0.0091879964 0.059888422
-0.065044113 -0.018378034 0.12132704
-0.064287342 -0.018384054 0.12136704
-0.059097923 -0.018383637 0.12136424
-0.032825805 -0.017127469 0.1130712
-0.029591598 -0.016535595 0.10916406
-0.029400744 -0.016559556 0.10932189
-0.028936736 -0.01740478 0.1149019
-0.030163191 -0.018455729 0.12184006
0.045523837 -0.016280279 0.10747826
0.04585363 -0.016315863 0.10771334
0.046168365 -0.016345799 0.10791093
0.04728388 -0.015646428 0.10329396
0.045464545 -0.012777358 0.084352911
0.045424953 -0.012616113 0.08328867
0.043783642 -0.011701703 0.077251792
0.045912981 -0.011697337 0.077222943
0.04638733 -0.0090771317 0.059925199
0.046495736 -0.0090733171 0.059899807
-0.060037725 -0.018436268 0.12329423
-0.043877877 -0.019327447 0.12925422
-0.041635878 -0.019185439 0.12830448
-0.039301567 -0.019117132 0.12784761
-0.028792597 -0.016534433 0.1105758
-0.031954505 -0.019639894 0.13134378
0.046650514 -0.016143188 0.10795915
0.047310397 -0.015599951 0.10432601
0.045787923 -0.012804627 0.085632086
0.045525692 -0.012289166 0.08218503
0.042904362 -0.011362344 0.075986981
0.045321837 -0.01173602 0.078485906
0.046151914 -0.011691332 0.078186989
0.046587981 -0.011550844 0.077247441
0.044940501 -0.0089276433 0.059704602
0.045553066 -0.0089728832 0.060007215
-0.060779311 -0.018260986 0.12373102
-0.045942359 -0.019246623 0.13040918
-0.031899296 -0.016708791 0.1132139
-0.031501733 -0.016626716 0.11265749
0.046211928 -0.015941203 0.10801274
0.046214171 -0.01547803 0.10487443
0.046406403 -0.012411922 0.084099412
0.043860659 -0.011596292 0.078572869
0.055278342 -0.013291761 0.090061188
0.061844163 -0.013012692 0.088170111
0.065086834 -0.013489485 0.091400623
-0.06357915 -0.017989501 0.12351894
-0.063137569 -0.017939076 0.12317246
-0.060803942 -0.017569065 0.12063187
-0.060330234 -0.017581284 0.12071586
-0.060057573 -0.01765278 0.121207
-0.060994245 -0.018005818 0.12363058
-0.060195632 -0.017847344 0.1225428
-0.059463196 -0.017707244 0.12158078
-0.040070586 -0.019117206 0.13126189
0.038952455 -0.02943565 0.20210916
0.039451212 -0.029485524 0.20245188
0.053661093 -0.026463673 0.18170351
0.056960553 -0.026921824 0.18484896
0.060263194 -0.027902171 0.19158024
0.045537226 -0.015657946 0.10750991
0.047093064 -0.015717059 0.10791576
0.045825101 -0.015072405 0.10348958
0.046928063 -0.015214875 0.10446769
0.047149129 -0.015214145 0.1044628
0.057218 -0.017470464 0.11995465
0.045446537 -0.012478366 0.085678577
0.045793109 -0.012473032 0.085641801
0.046344995 -0.011602968 0.079667985
0.045845769 -0.01127094 0.077388108
0.046286471 -0.01125741 0.077295363
0.060177658 -0.012610525 0.08658576
0.065164432 -0.013408124 0.092062175
0.062806942 -0.012768835 0.08767271
-0.060737573 -0.01628007 0.11329406
-0.064258404 -0.017574117 0.12229937
-0.064623766 -0.017746225 0.12349713
-0.06044925 -0.017306805 0.12043881
-0.058196791 -0.017325968 0.12057203
-0.057372965 -0.017156646 0.119394
-0.046258859 -0.01875484 0.13051575
-0.04569637 -0.018752962 0.13050264
-0.040568523 -0.018450499 0.12839806
-0.04000733 -0.018965036 0.13197869
-0.03231629 -0.016234905 0.11297983
-0.032024451 -0.016209424 0.11280239
-0.028176717 -0.015809134 0.11001664
-0.02723489 -0.015540034 0.10814428
0.037231296 -0.029047936 0.20214576
0.037759006 -0.028791398 0.20036095
0.039284386 -0.0289689 0.20159584
0.057316169 -0.026544124 0.18472177
0.058358237 -0.026841819 0.18679351
0.047970861 -0.017323554 0.12055558
0.048758 -0.016795844 0.11688334
0.04952082 -0.016885608 0.11750782
0.057215884 -0.017392427 0.12103498
0.043196566 -0.011292696 0.078586876
0.045406155 -0.011341184 0.078924
0.046180122 -0.011365592 0.079093993
0.046267338 -0.011345506 0.078954279
0.052642085 -0.012324363 0.085766077
0.060549125 -0.013124406 0.091333449
0.046129532 -0.0086347461 0.060089886
0.046269439 -0.0086368918 0.060104787
-0.065518595 -0.01705204 0.12029374
-0.064140476 -0.016892254 0.11916631
-0.061579026 -0.017172292 0.12114221
-0.058837004 -0.017203331 0.12136114
-0.063466497 -0.019061163 0.13446707
-0.041344859 -0.018180236 0.12825239
-0.041130893 -0.018329203 0.12930328
-0.033110328 -0.016048968 0.11321789
-0.027728327 -0.015607536 0.11010355
0.038788483 -0.028529048 0.20125848
0.054869138 -0.026147693 0.18445903
0.04799623 -0.016393736 0.11564976
0.048777886 -0.016575336 0.11693102
0.048934974 -0.016543955 0.11670953
0.045177601 -0.015119493 0.10666084
0.045698777 -0.015217155 0.10734957
0.046764731 -0.014827639 0.1046018
0.047275215 -0.014847547 0.10474217
0.04725796 -0.014634192 0.10323733
0.044004075 -0.011260629 0.07943821
0.046552531 -0.010980666 0.077463269
0.059443511 -0.012834534 0.090541422
0.059098743 -0.012596071 0.0888592
0.056129426 -0.011663347 0.082279205
0.045834094 -0.0085346103 0.060207903
-0.064169131 -0.017074823 0.12212938
-0.064566083 -0.017537117 0.12543625
-0.058788188 -0.017413944 0.12455505
-0.04571078 -0.01825124 0.13054377
-0.033160172 -0.015852705 0.11338824
-0.028544895 -0.015582293 0.11145425
0.039004512 -0.027984172 0.20015961
0.038363509 -0.026093245 0.18663496
0.045222357 -0.01492691 0.10676652
0.046760939 -0.014623076 0.10459334
0.047522441 -0.014514282 0.10381502
0.057771504 -0.017163694 0.12276524
0.045148812 -0.011948302 0.085461617
0.045240201 -0.010993928 0.078635573
0.045862339 -0.010823488 0.077416122
0.046260603 -0.010839224 0.077528894
0.046913475 -0.010875344 0.07778722
0.055440001 -0.012584329 0.09001106
0.05627314 -0.011216521 0.080227673
0.046225823 -0.0083952546 0.060048163
-0.064427175 -0.017256021 0.12516636
-0.056268252 -0.016361594 0.11867869
-0.045445345 -0.018002748 0.13058287
-0.044024594 -0.017879188 0.1296863
-0.031700112 -0.015629262 0.1133669
-0.029150493 -0.015957907 0.11575079
0.038745522 -0.026259676 0.19047385
0.051532269 -0.025933608 0.1881091
0.052121557 -0.025630295 0.18590873
0.056600463 -0.02604568 0.18892211
0.057546236 -0.025746211 0.18674964
0.058333471 -0.025918618 0.18800038
0.060568351 -0.02636674 0.19125086
0.045558304 -0.011793569 0.085544646
0.046252735 -0.011830881 0.08581531
0.046779878 -0.01182504 0.085772991
0.044678323 -0.01103434 0.080037713
0.04453253 -0.010873437 0.078870595
0.04440289 -0.010760337 0.078050077
0.04563839 -0.010895997 0.07903403
0.046128042 -0.010972321 0.0795874
0.04668548 -0.010709941 0.077684462
0.057849362 -0.012903839 0.093598068
0.056815509 -0.011739522 0.085152447
0.054319181 -0.011081725 0.080381095
0.05510398 -0.011136144 0.080776095
0.055989686 -0.010971397 0.079581082
0.056773543 -0.011024505 0.079966426
0.05885648 -0.011360586 0.082404137
-0.065998279 -0.01647003 0.12117451
-0.064061113 -0.016571924 0.12192386
-0.061805524 -0.016526252 0.12158781
-0.056820162 -0.016143501 0.11877191
-0.04591953 -0.017504081 0.12878174
-0.040854134 -0.017456681 0.12843323
-0.039643683 -0.017407343 0.12807
-0.032008357 -0.015440673 0.11360091
0.052506693 -0.025455505 0.1872825
0.044563226 -0.015304148 0.11259663
0.044539638 -0.015052214 0.11074287
0.046548806 -0.015324011 0.11274272
0.046720818 -0.014204159 0.10450357
0.05579152 -0.016187966 0.11909878
0.045990124 -0.011643976 0.085667789
0.045003541 -0.010632247 0.078224242
0.045615405 -0.010736883 0.078994274
0.046050757 -0.010759711 0.07916224
0.053391255 -0.011906162 0.087596655
0.056942925 -0.012522519 0.092131436
0.055668842 -0.012034267 0.088539124
0.053499095 -0.01137194 0.083666146
0.060481235 -0.012440249 0.091526091
0.054519609 -0.010931134 0.080423415
0.056060441 -0.011134803 0.081921458
0.056693181 -0.011190563 0.082331777
0.056278639 -0.011074334 0.081476867
0.046193592 -0.0081560612 0.060006201
-0.065858163 -0.016392976 0.12235767
-0.060610779 -0.016042382 0.1197409
-0.060421504 -0.016408026 0.12246966
-0.060210504 -0.016421869 0.12257302
-0.05573798 -0.015750259 0.11756021
-0.045730807 -0.01749742 0.13060099
-0.044014879 -0.017371029 0.12965775
-0.039679848 -0.017293364 0.12907815
-0.031373717 -0.01514785 0.11306381
0.0364535 -0.026828274 0.20024675
0.036643974 -0.02665551 0.19895703
0.037415884 -0.026599675 0.19854015
0.04685051 -0.025722086 0.19198984
0.047689699 -0.025296569 0.18881375
0.048847698 -0.025062442 0.1870665
0.057654627 -0.025419757 0.18973333
0.058750041 -0.025367409 0.18934304
0.047238909 -0.015017778 0.11209309
0.046180703 -0.014533937 0.10848171
0.046865761 -0.014530689 0.10845733
0.046676904 -0.014260486 0.10644084
0.055756494 -0.015946373 0.11902404
0.045748062 -0.010383517 0.077502787
0.045948192 -0.010391295 0.077561021
0.046360336 -0.010409415 0.077696085
0.053221755 -0.011457533 0.085519195
0.057286765 -0.012124419 0.090497136
0.055300776 -0.010894835 0.081319392
0.045918509 -0.0080586374 0.060149908
-0.065346457 -0.016093478 0.12189096
-0.065080591 -0.016092151 0.12188095
-0.063997991 -0.016484305 0.12485105
-0.057891034 -0.015977219 0.12101036
-0.056498177 -0.015804619 0.11970329
-0.052285798 -0.018162981 0.13756555
-0.045259155 -0.017276525 0.13085145
-0.038566537 -0.016797796 0.12722576
-0.033132218 -0.015068337 0.11412674
0.036806136 -0.0266947 0.20218378
0.03938745 -0.025565311 0.19362968
0.039561346 -0.025411159 0.19246238
0.051061362 -0.025199249 0.19085735
0.055374451 -0.025494695 0.19309503
0.056603082 -0.025677621 0.19448036
0.057024874 -0.025680348 0.19450134
0.057513412 -0.025166467 0.1906094
0.060592718 -0.025261372 0.19132787
0.047091037 -0.014317825 0.10844231
0.056133293 -0.015678093 0.11874479
0.045310505 -0.010926187 0.082754493
0.044134229 -0.010560125 0.079981744
0.044744015 -0.010583043 0.080155373
0.044869892 -0.010572314 0.08007431
0.054286346 -0.011097819 0.08405447
0.056797214 -0.011422127 0.086510718
0.057936959 -0.011391759 0.086280525
0.04632654 -0.0079235137 0.060012281
-0.063712128 -0.015838802 0.12175494
-0.063862868 -0.016207248 0.12458742
-0.060422517 -0.015932009 0.12247175
-0.059821106 -0.015911311 0.12231255
-0.058791883 -0.015845299 0.12180501
-0.05847127 -0.015899718 0.1222232
-0.057243653 -0.015777349 0.1212827
-0.05225917 -0.017208979 0.13228804
-0.048839875 -0.016170487 0.12430507
-0.051727913 -0.017804712 0.13686734
-0.049978174 -0.017600611 0.13529819
-0.047379471 -0.01688078 0.1297648
-0.046145894 -0.017039761 0.13098687
-0.03536988 -0.015619174 0.12006658
-0.032836266 -0.01482293 0.11394626
-0.030315764 -0.014548406 0.11183548
-0.028745122 -0.014128834 0.10861045
0.040064842 -0.024588585 0.18901557
0.043610446 -0.024766713 0.19038492
0.044718198 -0.024704278 0.18990499
0.051897652 -0.0250348 0.1924457
0.044324704 -0.014260933 0.10962588
0.056178745 -0.015529901 0.11938077
0.045631595 -0.011146158 0.085682213
0.046639331 -0.011168182 0.085851729
0.045314349 -0.010766238 0.082761467
0.046576492 -0.010118157 0.07777971
0.04826054 -0.010157675 0.078083694
0.054427341 -0.010444343 0.080287278
0.057881515 -0.010800719 0.083026648
-0.057668276 -0.017046317 0.13302535
-0.051521964 -0.016445726 0.12833875
-0.051662348 -0.017320439 0.13516504
-0.051333018 -0.017404735 0.13582247
-0.051026709 -0.017599449 0.13734204
-0.050079562 -0.017372712 0.13557273
-0.04617504 -0.016795695 0.13106972
-0.038448982 -0.016253367 0.12683785
-0.032441624 -0.014533699 0.11341792
-0.031956889 -0.014424324 0.11256438
0.038654171 -0.024873078 0.19410378
0.038968377 -0.024808973 0.19360369
0.04626558 -0.024509728 0.19126803
0.049782716 -0.024836734 0.19382018
0.046880804 -0.01501666 0.11718673
0.043881565 -0.013907328 0.10852987
0.044720702 -0.014025033 0.10944808
0.046529256 -0.014076769 0.10985202
0.046158314 -0.013894424 0.10842907
0.046158187 -0.013488054 0.10525793
0.047199696 -0.01340054 0.1045748
0.046676375 -0.011010051 0.085919917
0.046765007 -0.010987699 0.085745692
0.044323698 -0.010059297 0.078500688
0.044410191 -0.010040939 0.078357279
0.044762105 -0.010044754 0.078386962
0.04534284 -0.010099471 0.07881397
0.052817926 -0.01083833 0.084579945
0.05832151 -0.010753125 0.083915055
0.052500241 -0.0096206665 0.075077474
-0.065425552 -0.01540111 0.12203848
-0.063373215 -0.015537411 0.12311882
-0.062168501 -0.015434369 0.12230182
-0.060416646 -0.015062734 0.11935741
-0.058647387 -0.014683679 0.11635333
-0.061871208 -0.016394526 0.12991065
-0.05527354 -0.01633209 0.12941557
-0.052052535 -0.016021788 0.1269567
-0.050002016 -0.016509473 0.13082117
-0.050606705 -0.017289221 0.13699979
-0.049484156 -0.017306224 0.13713473
-0.047090687 -0.016767099 0.13286263
-0.045399733 -0.016564593 0.13125795
-0.041113518 -0.016202152 0.12838602
-0.04067912 -0.016138703 0.12788302
-0.03892421 -0.016091153 0.12750655
-0.029967524 -0.013734758 0.10883451
-0.029463865 -0.014518231 0.11504239
0.044796877 -0.024227872 0.19198173
0.045530953 -0.024181932 0.19161731
0.055510752 -0.023894086 0.18933707
0.059182085 -0.023905903 0.18943053
0.043465719 -0.013638631 0.1080727
0.047507919 -0.013220772 0.1047616
0.055946797 -0.014935657 0.11835033
0.046186514 -0.010900736 0.086377501
0.046711348 -0.010851085 0.085984349
0.044932805 -0.010119438 0.080186546
0.045458511 -0.0097541809 0.077292144
0.04620301 -0.0095999241 0.076069951
0.046782419 -0.0096523762 0.076485634
0.057773493 -0.010490477 0.083126605
0.057903446 -0.010481805 0.083058178
-0.063901134 -0.015173465 0.12211615
-0.062818952 -0.015291229 0.12306398
-0.059832908 -0.015267596 0.1228736
-0.058944352 -0.015174061 0.12212098
-0.05733446 -0.015025795 0.12092751
-0.056489952 -0.015878111 0.12778729
-0.055422105 -0.015963882 0.12847763
-0.049155839 -0.016160756 0.13006181
-0.049375094 -0.016325191 0.13138503
-0.045231752 -0.016249046 0.13077229
-0.040718354 -0.016012922 0.12887228
-0.039886199 -0.016010597 0.1288535
-0.031844132 -0.01393725 0.11216718
-0.029295944 -0.013753891 0.11069173
-0.029597111 -0.01412341 0.11366546
-0.031668402 -0.015493393 0.12469059
0.037492938 -0.02444309 0.19671792
0.040709592 -0.023625791 0.19014007
0.041550606 -0.023412675 0.18842524
0.051346175 -0.023472115 0.18890363
0.051864609 -0.023162723 0.18641347
0.054635823 -0.023672894 0.19051951
0.055288751 -0.023431897 0.18857974
0.047160134 -0.013428107 0.10806948
0.056099728 -0.014745757 0.11867374
0.056617975 -0.014748573 0.11869681
0.044891246 -0.010601282 0.085319281
0.046453364 -0.010751784 0.086530745
0.044787958 -0.0097455382 0.078432262
0.045548692 -0.0098010302 0.078878701
0.046125643 -0.0098885596 0.079583287
0.046002261 -0.0096486211 0.077652276
0.046938963 -0.0096706152 0.07782948
0.046876758 -0.0095228255 0.076639831
-0.06006936 -0.015022129 0.12282014
-0.057462163 -0.014757082 0.12065291
-0.059448592 -0.015405461 0.12595433
-0.053783961 -0.016044602 0.13117975
-0.052811004 -0.015836895 0.12948161
-0.050427713 -0.015529096 0.12696493
-0.04504057 -0.016647264 0.13610691
-0.042951457 -0.0161888 0.13235849
-0.040413402 -0.015644342 0.1279071
-0.039443173 -0.016142294 0.13197869
-0.031698562 -0.013656497 0.1116544
0.043107212 -0.023234114 0.18996042
0.04964681 -0.024041563 0.19656235
0.050527692 -0.024060935 0.19672042
0.051018052 -0.023511827 0.19223124
0.050868332 -0.023255557 0.19013578
0.052914597 -0.02290985 0.18730944
0.054576777 -0.02293542 0.1875183
0.057059534 -0.022966787 0.18777508
0.045542531 -0.014150724 0.11569583
0.048054017 -0.014162123 0.11578906
0.046783879 -0.01324226 0.10826784
0.05606553 -0.014506131 0.1186015
0.056452703 -0.014540553 0.11888301
0.045858108 -0.010489702 0.085763335
0.046424374 -0.00951612 0.077803433
0.046037555 -0.0093035102 0.076065242
-0.064309277 -0.014792472 0.12289613
-0.061036833 -0.014514014 0.12058258
-0.06033323 -0.01478368 0.12282288
-0.059380122 -0.014677823 0.12194383
-0.058490746 -0.014586061 0.12118119
-0.058047332 -0.014539868 0.12079734
-0.06096641 -0.016056627 0.13339871
-0.060331725 -0.015964136 0.13263029
-0.048390083 -0.015498772 0.12876391
-0.040445246 -0.015619099 0.12976354
-0.039399184 -0.015534744 0.12906241
-0.039726026 -0.016350403 0.13583952
0.037297904 -0.024374977 0.20250767
0.037298806 -0.023555562 0.19569939
0.042941719 -0.022776946 0.18923134
0.045856588 -0.023229152 0.19298774
0.048288457 -0.023611501 0.19616419
0.050240181 -0.023942173 0.19891161
0.050937064 -0.023479506 0.19506806
0.052377753 -0.022487074 0.18682259
0.054430254 -0.02284576 0.18980259
0.059820343 -0.0228903 0.19017237
0.04259301 -0.012953579 0.10761851
0.046075083 -0.012585297 0.10455883
0.045621805 -0.010352492 0.086009026
0.04583358 -0.0093460977 0.077647686
0.046053752 -0.0093571246 0.077739179
0.045420773 -0.00724262 0.060171783
-0.061366446 -0.014177114 0.11971718
-0.058238812 -0.01567705 0.13238341
-0.058567621 -0.015842512 0.13378078
-0.056098469 -0.015554309 0.131347
-0.049804963 -0.016640678 0.14052087
-0.044590838 -0.015266791 0.1289193
-0.04205329 -0.015448079 0.13044995
-0.039992251 -0.014888391 0.12572366
0.037858568 -0.023006827 0.19427913
0.042412765 -0.022557959 0.19048852
0.042857364 -0.022365049 0.18885952
0.043231316 -0.022349685 0.18872982
0.045940489 -0.022895724 0.19334084
0.049560808 -0.023636937 0.19960004
0.052904733 -0.022010803 0.18586832
0.053615905 -0.021976635 0.18557984
0.044800326 -0.013191089 0.11139107
0.046388477 -0.012839884 0.10842538
0.0430886 -0.0093193054 0.078696489
0.044541664 -0.0093066394 0.078589201
0.046427324 -0.0092141628 0.07780838
0.044842251 -0.0070748925 0.059743702
-0.060978942 -0.013914272 0.11945933
-0.060939811 -0.014903814 0.12795496
-0.060818858 -0.015008971 0.12885749
-0.060433216 -0.015259281 0.13100666
-0.057155557 -0.015665635 0.13449508
-0.057641424 -0.015878618 0.13632411
-0.030031122 -0.012903988 0.11078542
0.050786093 -0.023620307 0.20278901
0.052489616 -0.021319464 0.18303543
0.047002971 -0.014060736 0.12071687
0.048885733 -0.013649881 0.11718947
0.046882935 -0.012214512 0.10486621
0.046040423 -0.01006937 0.086449921
0.044002727 -0.0093607903 0.080365956
0.044994198 -0.0093526542 0.080296099
0.044571027 -0.009159863 0.078641057
0.045226723 -0.0091906488 0.078905284
0.045583896 -0.0091607273 0.078648627
0.045735516 -0.009090662 0.078046739
0.045243733 -0.007001102 0.06010747
0.046042249 -0.0070249438 0.060311973
-0.066151835 -0.013965547 0.12193483
-0.061410554 -0.013778836 0.12030494
-0.060865022 -0.014315844 0.12499321
-0.060890518 -0.014843032 0.12959617
-0.062356316 -0.015482023 0.13517553
-0.06220787 -0.015662894 0.13675481
-0.058489494 -0.015684724 0.13694543
-0.053103484 -0.015231296 0.13298625
-0.029504247 -0.012465939 0.10884178
-0.031998999 -0.014552683 0.12706161
0.039127655 -0.022503585 0.19648141
0.040963598 -0.02213414 0.19325572
0.05122862 -0.02265501 0.19780356
0.051986821 -0.022079274 0.19277638
0.057607327 -0.02156125 0.18825358
0.058659896 -0.021652713 0.18905252
0.044680148 -0.013000041 0.11350507
0.044374228 -0.0090011358 0.078590214
0.044657677 -0.009024471 0.078793943
0.046220139 -0.0090999901 0.079453409
0.046523616 -0.0087729692 0.07659781
0.057622425 -0.0094957948 0.082909167
0.053500481 -0.0087895095 0.076742411
0.053938001 -0.0088343024 0.077133596
0.04650908 -0.0069004595 0.060248733
-0.0637087 -0.013651684 0.12125313
-0.063451625 -0.013652131 0.12125719
-0.062460683 -0.013776571 0.12236214
-0.062148996 -0.013765469 0.12226343
-0.027277239 -0.011698321 0.10390323
