# .PCD v0.7 - Point Cloud Data file format
VERSION 0.7
FIELDS x y z
SIZE 4 4 4
TYPE F F F
COUNT 1 1 1
WIDTH 1370
HEIGHT 1
VIEWPOINT 0 0 0 1 0 0 0
POINTS 1370
DATA ascii
0.10235658 -0.10814553 0.26002562
0.10334429 -0.0862436 0.20736432
0.11020496 -0.086063445 0.20693123
0.11117324 -0.085447848 0.20545119
0.11070701 -0.069903493 0.16807622
0.11024013 -0.06763351 0.16261816
0.10849836 -0.064927191 0.15611124
0.11138287 -0.064472437 0.15501773
0.11237428 -0.064281434 0.15455842
-0.24064724 -0.2417098 0.58389777
-0.11883143 -0.12657681 0.30577123
-0.10506767 -0.11639699 0.2811799
-0.10361049 -0.11544305 0.27887547
0.10156271 -0.11102498 0.26820266
0.10365012 -0.10841167 0.26188964
0.10398617 -0.086373568 0.20865232
0.11079851 -0.083769143 0.20236081
0.10952434 -0.067304641 0.16258758
0.107739 -0.064568549 0.15597802
0.1074014 -0.063579291 0.15358829
0.10728827 -0.063126445 0.15249437
0.11164948 -0.063944131 0.15446979
-0.25469002 -0.24692971 0.59932202
0.10137203 -0.10786089 0.26178879
0.10390237 -0.10816503 0.26252699
0.10346499 -0.10713112 0.26001763
0.10327658 -0.086871505 0.21084553
0.10916486 -0.085137427 0.20663673
0.11147812 -0.084881067 0.20601457
0.1087831 -0.065907776 0.15996456
0.11044601 -0.063332349 0.15371376
0.11261442 -0.063629419 0.1544348
0.11268428 -0.063113868 0.15318358
0.10239765 -0.10784274 0.26298577
0.10942575 -0.067468613 0.16452932
0.10748801 -0.065020204 0.15855849
0.10431555 -0.062509835 0.15243679
0.10380664 -0.061437428 0.14982146
0.10402849 -0.060818225 0.14831161
0.11145082 -0.063230753 0.15419489
0.10952178 -0.12146646 0.29761964
0.10003307 -0.10904291 0.26717931
0.10224012 -0.087088048 0.21338505
0.10714534 -0.086628973 0.21226037
0.10797909 -0.070570022 0.17291212
0.10748735 -0.064305902 0.15756392
0.1015071 -0.059424937 0.14560425
0.11433938 -0.065926671 0.16153491
0.11227813 -0.061933011 0.15174967
-0.11587545 -0.12966686 0.31923342
0.10686335 -0.11864257 0.29209214
0.10158101 -0.086114377 0.21200931
0.10866991 -0.087443113 0.21528059
0.10752633 -0.069939256 0.17218709
0.11076859 -0.070127994 0.17265171
0.10901204 -0.067443073 0.16604167
0.11054066 -0.066024482 0.16254902
0.10193041 -0.059754848 0.1471135
0.10741439 -0.062013209 0.15267354
0.11608878 -0.066616476 0.16400641
0.11251667 -0.062674105 0.15430069
-0.25100452 -0.24242055 0.59969789
-0.10654792 -0.11268663 0.27876335
0.10627916 -0.11881742 0.29392958
0.10046521 -0.10785469 0.26681024
0.099442393 -0.10615414 0.2626034
0.10879841 -0.087497979 0.21645176
0.11218503 -0.073884517 0.18277508
0.108704 -0.070126772 0.17347914
0.10903743 -0.070102751 0.17341965
0.11039725 -0.070024908 0.17322707
0.11391369 -0.068358004 0.16910344
0.11289725 -0.064670146 0.15998065
0.11907819 -0.061842442 0.15298533
-0.25769287 -0.24394596 0.60638815
-0.24617812 -0.23661566 0.58816689
-0.10670951 -0.1116901 0.27763349
0.10186711 -0.1082195 0.26900643
0.10482159 -0.11011523 0.27371866
0.10107216 -0.087598056 0.21774673
0.10246888 -0.087998152 0.21874124
0.10451671 -0.085840255 0.21337736
0.10517314 -0.086004108 0.21378452
0.10878995 -0.084904075 0.21105021
0.10889342 -0.084285885 0.20951366
0.10975191 -0.083915144 0.20859194
0.10897246 -0.069723994 0.17331642
0.10908058 -0.069556773 0.17290068
0.10896805 -0.068100721 0.16928136
0.10262927 -0.062682271 0.15581256
0.111985 -0.062145114 0.15447712
0.11895964 -0.061483771 0.15283316
-0.21671328 -0.15744168 0.39326125
-0.21617581 -0.15766281 0.39381343
0.11003509 -0.12329069 0.30795801
0.09769389 -0.10690475 0.26702899
0.10186043 -0.10648733 0.2659862
0.10060576 -0.08717376 0.21774453
0.10068408 -0.086839974 0.21691078
0.10149649 -0.087139428 0.2176587
0.10769811 -0.067204863 0.16786587
0.11215326 -0.06861341 0.17138416
0.11319259 -0.061603546 0.15387464
-0.2640565 -0.23913479 0.60023087
-0.10210565 -0.10949159 0.27482504
0.10479382 -0.10781834 0.27062517
0.10134545 -0.1036981 0.26028341
0.1066747 -0.087146044 0.21873748
0.1090503 -0.072552145 0.18210685
0.11011389 -0.071723819 0.18002766
0.10821572 -0.067199886 0.16867256
0.11498132 -0.066525459 0.16697973
0.11245206 -0.061619401 0.15466541
0.11309609 -0.061430573 0.15419137
0.11342695 -0.061431229 0.15419316
0.11375186 -0.061428785 0.15418684
-0.13398686 -0.12888956 0.3251009
-0.10410413 -0.10920507 0.27545023
0.099574238 -0.10853809 0.27376789
0.099591285 -0.087067664 0.2196126
0.10939756 -0.072687536 0.18334121
0.10941425 -0.072439075 0.18271458
0.10844389 -0.069562137 0.17545789
0.10747471 -0.066636056 0.16807747
0.11103311 -0.06392765 0.16124612
0.11825541 -0.060399413 0.15234667
-0.21229245 -0.155604 0.39441758
-0.10020095 -0.10826892 0.27443469
0.10890099 -0.11952716 0.30297154
0.096939951 -0.10453424 0.26496828
0.095504791 -0.10238838 0.25952929
0.10153285 -0.10698676 0.27118498
0.10082838 -0.085697412 0.21722168
0.10217682 -0.086445391 0.21911752
0.10800323 -0.088929147 0.22541326
0.10780337 -0.086076736 0.21818316
0.10862222 -0.070307314 0.17821163
0.10759589 -0.068443 0.17348599
0.1058729 -0.065320969 0.16557246
0.11147287 -0.064265013 0.16289586
0.11087069 -0.063718885 0.16151154
0.10997441 -0.062618881 0.15872329
0.11222252 -0.061072946 0.15480483
-0.21039051 -0.14872533 0.37884885
-0.21061806 -0.14946142 0.38072383
-0.21100762 -0.15031862 0.38290751
-0.21471997 -0.15537372 0.39578438
-0.21306506 -0.15540066 0.3958531
-0.13771519 -0.12983012 0.33071697
0.098470956 -0.10444146 0.26604444
0.1037226 -0.10632762 0.27084893
0.099991888 -0.088649511 0.22581744
0.10795608 -0.088848531 0.2263245
0.10862043 -0.071978897 0.18335223
0.10941806 -0.07224676 0.18403471
0.10927281 -0.071381062 0.18182951
0.12991992 -0.075235695 0.19164842
0.11022082 -0.063033223 0.16056472
0.11239704 -0.060687572 0.15458977
0.11810187 -0.059729367 0.1521489
-0.20922443 -0.1483101 0.37967151
-0.20153928 -0.14802969 0.37895375
-0.099342823 -0.10505366 0.26893574
-0.098678559 -0.10495847 0.2686922
-0.099596649 -0.10718259 0.27438581
0.10778555 -0.11644441 0.29809576
0.10078797 -0.10575885 0.27074099
0.098171026 -0.088309228 0.22607023
0.095975906 -0.085078418 0.21779943
0.099672526 -0.08626321 0.22083259
0.10743567 -0.085678935 0.21933657
0.10770217 -0.085148215 0.21797824
0.10992429 -0.071962923 0.18422389
0.10751596 -0.069147825 0.17701739
0.1290479 -0.074595869 0.19096416
0.12816742 -0.073853225 0.18906319
-0.20538434 -0.14950222 0.38463783
-0.14138085 -0.13129169 0.33778602
-0.099652737 -0.10798082 0.277812
0.10763308 -0.1157009 0.29767406
0.099761695 -0.088423014 0.22749388
0.098046333 -0.086481094 0.2224977
0.10531548 -0.089422971 0.23006666
0.10770413 -0.087763131 0.22579622
0.11026427 -0.075618297 0.19455004
0.10694018 -0.068676829 0.17669111
0.10751757 -0.068563342 0.17639923
0.12771037 -0.073455215 0.18898493
0.11027452 -0.062830478 0.16164964
0.10843864 -0.061591446 0.15846199
0.11732832 -0.058750272 0.15115231
-0.20207545 -0.14813668 0.38304073
-0.20693009 -0.15483192 0.40035278
-0.19960245 -0.15512228 0.40110362
-0.11978501 -0.11920249 0.30822492
-0.10371485 -0.10673249 0.27598095
-0.10162798 -0.10701954 0.27672321
-0.10417399 -0.11576411 0.29933417
0.098335534 -0.089335382 0.23099679
0.099085957 -0.087384641 0.22595292
0.10817233 -0.070363045 0.18193954
0.10839406 -0.061450124 0.15889311
0.11673597 -0.058321893 0.15080446
-0.22300339 -0.15451831 0.40156072
-0.20957798 -0.14982906 0.38937438
-0.20494103 -0.14887887 0.38690501
-0.20074567 -0.14822352 0.38520181
-0.096695274 -0.10014755 0.26026255
-0.10033533 -0.10636517 0.27642077
-0.10418087 -0.11518973 0.29935414
0.10156682 -0.10438544 0.27127582
0.098516613 -0.088164687 0.22912151
0.09859851 -0.087369353 0.2270546
0.10696885 -0.088676035 0.23045039
0.10639164 -0.070634305 0.18356365
0.10701433 -0.069011748 0.1793471
0.10958222 -0.069180846 0.17978668
0.10990968 -0.06890437 0.17906809
0.10787734 -0.067395598 0.175147
0.11229423 -0.05840072 0.15177131
0.11621407 -0.057294667 0.14889687
-0.21023773 -0.15073842 0.39372706
-0.21112993 -0.15198654 0.39698702
-0.20175394 -0.15006155 0.39195913
-0.20005654 -0.14941949 0.39028209
-0.19441411 -0.14766815 0.3857075
-0.19782695 -0.15285304 0.39925045
-0.17597389 -0.13715127 0.35823756
-0.17340985 -0.14259836 0.37246531
-0.17522773 -0.14747846 0.38521206
0.10126689 -0.090618491 0.23669446
0.10800233 -0.092487335 0.24157578
0.10725537 -0.088058829 0.2300086
0.10548106 -0.069675922 0.18199271
0.107595 -0.068789244 0.17967659
0.10803673 -0.068581998 0.1791355
0.12951234 -0.071342945 0.18634701
-0.21138713 -0.14668289 0.3850897
-0.21010132 -0.14987558 0.3934716
-0.21319935 -0.15269679 0.40087807
-0.19368476 -0.14452845 0.37943369
-0.18176416 -0.14735621 0.38685757
-0.12317917 -0.11813256 0.31013596
-0.10293204 -0.10315591 0.27081746
-0.10157165 -0.10596374 0.27818888
0.10386744 -0.10447818 0.27428877
0.10388294 -0.10332745 0.27126771
0.10034433 -0.088892817 0.23337215
0.1049827 -0.090308398 0.23708856
0.1110864 -0.075512111 0.1982435
0.10886124 -0.072343856 0.18992591
0.10663965 -0.070604205 0.1853587
0.11391255 -0.06320852 0.16594273
0.13041106 -0.071473211 0.18764013
-0.19954339 -0.14510238 0.38289481
-0.19538045 -0.14504966 0.38275564
-0.18647608 -0.14079714 0.37153441
-0.18648243 -0.14641345 0.38635451
-0.16245091 -0.12926269 0.34109718
-0.16236988 -0.13036832 0.34401482
-0.16816494 -0.13688079 0.36119986
-0.12705001 -0.11866847 0.31314141
-0.10404024 -0.10432088 0.27528113
-0.10175818 -0.10500169 0.27707767
-0.098440349 -0.1039992 0.27443224
-0.10231975 -0.11494672 0.30332035
0.11154917 -0.11831006 0.31219536
0.099270016 -0.102229 0.26976097
0.10442212 -0.10391352 0.27420604
0.10104737 -0.090406924 0.23856497
0.10314527 -0.090458065 0.23869997
0.10549489 -0.088158101 0.23263091
0.10772493 -0.073132157 0.19298065
0.11992636 -0.066412568 0.1752491
0.11664906 -0.061523229 0.16234696
0.11265162 -0.0588893 0.15539664
0.11247173 -0.058622479 0.15469253
0.11590973 -0.056744605 0.14973718
-0.18766639 -0.14466524 0.38371015
-0.15780622 -0.13329756 0.35355854
-0.12712777 -0.11875749 0.31499231
-0.12235054 -0.11740351 0.31140119
-0.10255998 -0.10289091 0.27290797
-0.10077202 -0.10466892 0.27762389
0.099985391 -0.089905053 0.2384643
0.10462406 -0.087393701 0.231803
0.10569146 -0.087457001 0.23197097
0.11021641 -0.074725837 0.19820285
0.10942331 -0.073904097 0.19602317
0.11072484 -0.074214816 0.19684726
0.10573229 -0.06753251 0.17912334
-0.19658998 -0.14207047 0.3787812
-0.19973585 -0.14494082 0.38643384
-0.17936957 -0.14859584 0.39617878
-0.15563837 -0.13205311 0.35207325
0.10576984 -0.11305821 0.30142993
0.09676972 -0.092205137 0.24583268
0.10982648 -0.097253263 0.25929171
0.10527113 -0.0891698 0.23773998
0.13159123 -0.071234584 0.18992221
0.11155263 -0.057546735 0.15342826
-0.19883373 -0.13308221 0.35666591
-0.18808025 -0.13142741 0.3522312
-0.13021466 -0.11850381 0.31759518
-0.12723744 -0.117634 0.31526417
-0.12333137 -0.11524338 0.30885714
-0.10628849 -0.10204923 0.27349639
-0.10367349 -0.10120839 0.27124292
-0.10310441 -0.10179132 0.27280504
0.10342303 -0.1030705 0.27623332
0.096424729 -0.092913628 0.24901253
0.097650677 -0.090115726 0.24151397
0.10708067 -0.06944865 0.18612528
0.13981798 -0.076957464 0.20624936
0.12938461 -0.067998976 0.18224007
0.12979916 -0.068012059 0.18227518
0.111545 -0.056579232 0.15163481
-0.19501719 -0.13085091 0.35252291
-0.18925273 -0.12847224 0.34611452
-0.19420391 -0.13339752 0.35938388
-0.18768862 -0.1304704 0.35149777
-0.20384759 -0.14639091 0.39438891
-0.12993535 -0.11950231 0.32194889
-0.10560277 -0.10142034 0.27323467
-0.10260281 -0.10134137 0.27302176
-0.096275717 -0.097305715 0.26214945
-0.098394334 -0.10121417 0.27267909
0.10059729 -0.10513359 0.28323853
0.097462684 -0.10124838 0.2727713
0.10296026 -0.10266066 0.27657622
0.10342994 -0.10254031 0.27625191
0.099877805 -0.096808136 0.26080906
0.097856313 -0.094322383 0.25411206
0.096485406 -0.092487723 0.24916929
0.10388473 -0.089680374 0.24160618
0.10533878 -0.088730305 0.23904657
0.10939756 -0.073304862 0.19748932
0.10960224 -0.073159724 0.19709831
0.14054528 -0.076233566 0.20537949
0.13428405 -0.072385252 0.19501179
-0.18963858 -0.12324235 0.33377331
-0.18785527 -0.12394857 0.33568585
-0.18819529 -0.12659031 0.34284049
-0.14370909 -0.11449936 0.31009495
-0.1282011 -0.11791411 0.31934303
-0.10188213 -0.10067496 0.27265471
-0.09930563 -0.09984225 0.27039963
-0.098317891 -0.10060573 0.27246726
0.098726541 -0.10022548 0.27143735
0.099947065 -0.10087168 0.27318758
0.10340664 -0.10198021 0.27618974
0.098178476 -0.090616584 0.24541396
0.099764496 -0.091106892 0.24674183
0.10058323 -0.090420663 0.24488348
0.10137829 -0.090663582 0.24554133
0.10445127 -0.089697123 0.2429238
0.10490778 -0.088765442 0.24040049
0.11145476 -0.073442101 0.19890082
0.1133236 -0.073551327 0.19919664
0.11074296 -0.056406498 0.15276384
0.11574039 -0.055208087 0.14951831
-0.18744734 -0.12163442 0.33116245
-0.17649218 -0.12699345 0.34575301
-0.1251407 -0.11635154 0.31677938
-0.10571671 -0.10102481 0.27505046
-0.10262355 -0.10087368 0.27463913
0.10295382 -0.10711372 0.2916283
0.10216591 -0.10138363 0.27602738
0.099905282 -0.091237366 0.24840319
0.10083142 -0.09016645 0.24548763
0.11038354 -0.072909385 0.19850343
0.12550256 -0.069087327 0.18809748
0.1110234 -0.056417882 0.15360349
0.11104682 -0.055607617 0.15139741
-0.18840337 -0.12490928 0.34188837
-0.19504941 -0.13135338 0.3595264
-0.19936119 -0.13478816 0.36892766
-0.19960643 -0.13548988 0.3708483
-0.19837868 -0.15015972 0.41100115
-0.18807516 -0.14624622 0.4002896
-0.13777176 -0.11013669 0.30145425
-0.13463861 -0.11575198 0.31682402
-0.12789866 -0.11764979 0.3220185
-0.10750896 -0.10106957 0.27663684
0.10151723 -0.10078859 0.27586782
0.096659333 -0.090697795 0.24824816
0.098625153 -0.090554059 0.24785477
0.100382 -0.090228379 0.24696368
0.12849131 -0.066522479 0.18207818
0.12973288 -0.066760868 0.18273067
0.11165085 -0.055132121 0.15090179
-0.19739428 -0.13274795 0.36528772
-0.19041365 -0.1290746 0.35517949
-0.18063828 -0.12443256 0.34240586
-0.18152174 -0.12554982 0.3454802
-0.18904814 -0.14296868 0.39341223
-0.13260522 -0.11116081 0.30588537
-0.13397747 -0.11514974 0.31686193
-0.13452837 -0.11680412 0.32141429
-0.13223103 -0.11659566 0.32084066
-0.13143364 -0.11710715 0.32224816
-0.12985313 -0.11692441 0.32174516
-0.09512955 -0.09637624 0.26520216
0.10061935 -0.099945992 0.27502507
0.09866336 -0.090593517 0.24928969
0.11076102 -0.073802471 0.20308506
0.12693217 -0.069805354 0.19208598
0.12891164 -0.065590262 0.18048716
0.11118141 -0.055246562 0.15202397
0.11483839 -0.05406183 0.14876378
-0.18592405 -0.12101483 0.33479226
-0.18942553 -0.12926388 0.35761362
-0.17776224 -0.1291199 0.3572154
-0.18539801 -0.14198419 0.39280468
-0.14655727 -0.11700734 0.32370532
-0.13447261 -0.11437878 0.31643331
-0.13346025 -0.11467117 0.31724232
-0.10871223 -0.1000129 0.27668953
0.10105398 -0.097007066 0.26837391
0.098337084 -0.092818439 0.25678569
0.096831232 -0.089892 0.24868965
0.103012 -0.089719802 0.24821329
0.1032317 -0.089450479 0.24746829
0.11070767 -0.055200726 0.15271509
0.11211869 -0.054773927 0.15153408
-0.1873208 -0.1281743 0.35651708
-0.16503587 -0.11623573 0.32330978
-0.13971013 -0.111467 0.31004554
-0.13549671 -0.11462986 0.31884319
-0.13346526 -0.11464101 0.31887412
-0.1075744 -0.098972172 0.2752912
-0.10591099 -0.09906736 0.27555597
0.10021296 -0.090542793 0.25184494
0.10205868 -0.091230392 0.25375754
0.13214108 -0.068991363 0.19189972
0.12029293 -0.060731798 0.16892576
0.11930802 -0.060054421 0.1670413
0.11428443 -0.057183504 0.15905595
-0.18705767 -0.12137711 0.33944643
-0.17905951 -0.12285852 0.34358931
-0.18099838 -0.12573588 0.35163623
-0.17926022 -0.13580671 0.37980062
-0.14623895 -0.11283386 0.31555396
-0.1433329 -0.11162114 0.31216264
-0.1400438 -0.11165854 0.31226712
-0.12836286 -0.10587734 0.29609936
-0.12999743 -0.1139684 0.31872684
-0.10757437 -0.099525571 0.27833587
0.10744455 -0.10949001 0.30620247
0.09891203 -0.095007986 0.26570183
0.10349599 -0.096636891 0.27025706
0.10143545 -0.089234501 0.24955547
0.10553989 -0.078413635 0.21929377
0.11016312 -0.071664214 0.20041811
0.11101058 -0.071658283 0.20040131
0.14124832 -0.074036956 0.2070536
0.13086346 -0.067744613 0.18945628
0.11998716 -0.060797304 0.17002738
0.11882129 -0.060024768 0.16786683
0.11336854 -0.056418449 0.1577813
0.11492231 -0.053232849 0.14887249
-0.1821163 -0.13418216 0.37730867
-0.13278255 -0.11224777 0.31563133
-0.10408178 -0.097937167 0.27539104
-0.099920899 -0.097324252 0.27366769
-0.098784357 -0.096783847 0.27214795
-0.097958416 -0.097700417 0.27472556
0.097990423 -0.094698399 0.26628393
0.099399596 -0.094415128 0.26548725
0.10448608 -0.097575426 0.27437377
0.10101673 -0.076688468 0.2156415
0.1107547 -0.071104288 0.19993937
0.13817981 -0.072718203 0.20447749
0.1178194 -0.059554696 0.16746283
0.11332014 -0.056255013 0.15818441
0.11224398 -0.055555046 0.15621614
0.11482027 -0.053043306 0.14915335
-0.19143662 -0.12239289 0.34605056
-0.17531469 -0.13137326 0.37144119
-0.14375016 -0.11124647 0.3145355
-0.10169885 -0.09737438 0.27531374
0.10478178 -0.077003837 0.21771866
0.10600975 -0.07722041 0.2183308
0.13942078 -0.072970092 0.20631385
0.1150566 -0.052569985 0.14863497
0.11506549 -0.052285284 0.14783007
-0.14241338 -0.11116579 0.31604463
-0.10442552 -0.097738951 0.27787203
-0.10352534 -0.097450554 0.27705234
0.10000035 -0.089356214 0.25403988
0.10221729 -0.078911573 0.22434586
0.10349718 -0.078068554 0.2219491
0.1114271 -0.070211947 0.19961286
0.13780096 -0.071051657 0.2020002
0.11154577 -0.055097461 0.15664226
0.11023524 -0.053804159 0.15296543
-0.19807646 -0.12622103 0.36084133
-0.20454021 -0.13292781 0.38001466
-0.1668607 -0.11482394 0.32825929
-0.12921351 -0.11140102 0.31847382
-0.12801561 -0.11095276 0.31719238
-0.10785306 -0.097076297 0.27752227
-0.10647222 -0.096899271 0.27701622
-0.10583183 -0.096855015 0.2768898
-0.10382694 -0.096641481 0.27627915
-0.1007033 -0.095916092 0.27420539
-0.10274878 -0.099603266 0.28474653
-0.098324984 -0.098223984 0.28080308
0.11200425 -0.11303097 0.32313365
0.1011093 -0.095554858 0.2731728
0.10358521 -0.081046402 0.23169583
0.10312983 -0.079925895 0.22849256
0.10316601 -0.075995356 0.21725577
0.10669747 -0.076195955 0.21782953
0.10954741 -0.069713712 0.19929785
0.11181119 -0.053013891 0.15155631
-0.10773152 -0.096427917 0.27720964
-0.098277479 -0.097038448 0.27896476
0.11215964 -0.11051434 0.31770492
0.10613063 -0.095338494 0.27407759
0.10222259 -0.081483424 0.23424727
0.10325053 -0.080721378 0.23205656
0.10266498 -0.078380942 0.22532851
0.10734233 -0.080073833 0.23019505
0.10565963 -0.078458965 0.22555256
0.10603961 -0.076304138 0.21935791
0.10648432 -0.076286793 0.21930814
0.11042884 -0.070156753 0.20168561
0.10971716 -0.052802682 0.15179634
0.11020073 -0.052878976 0.15201586
0.11114356 -0.052253038 0.15021622
-0.14407766 -0.10956055 0.31673336
-0.13340333 -0.1091353 0.31550413
-0.1311858 -0.10953593 0.31666231
-0.10700876 -0.095772326 0.27687246
-0.10598317 -0.095915258 0.2772857
0.10611716 -0.094793588 0.27404284
0.10316077 -0.080587566 0.23297405
0.10162953 -0.076086044 0.21996033
0.10689059 -0.079291165 0.22922635
0.11080214 -0.068924308 0.19925618
0.12326732 -0.060605168 0.17520618
0.1114569 -0.052716583 0.15240061
0.1111857 -0.05243504 0.15158683
-0.14457878 -0.10881239 0.31634855
-0.13202611 -0.10905534 0.31705493
-0.10585862 -0.095264077 0.27695984
0.10463503 -0.095042586 0.27631587
0.10513213 -0.094958127 0.27607054
0.10618535 -0.094321281 0.27421892
0.10323301 -0.076147497 0.22138262
0.11258331 -0.069107294 0.20091468
0.1187934 -0.061239988 0.17804205
0.1303809 -0.064131945 0.18644989
0.11091623 -0.052318871 0.15210593
0.11664566 -0.051831126 0.15068781
0.11650482 -0.051625967 0.15009147
-0.13367257 -0.10812616 0.31614077
-0.10770121 -0.095838428 0.28021365
-0.10219452 -0.096863389 0.28321052
0.10396704 -0.094435036 0.27611029
0.10454312 -0.0944224 0.27607328
0.10239461 -0.077591717 0.22686368
0.10454419 -0.075638711 0.22115338
0.1074529 -0.075029343 0.21937174
0.10759386 -0.074801326 0.21870512
0.10725537 -0.074243456 0.21707392
0.11054119 -0.068251252 0.19955391
0.11002162 -0.052371025 0.15312314
0.11006644 -0.052082568 0.15227962
-0.19652632 -0.12668538 0.37252206
-0.14387101 -0.10909641 0.32080102
-0.13146892 -0.10848093 0.31899148
-0.10496604 -0.094986439 0.27931029
-0.10345694 -0.094697952 0.27846217
0.10664573 -0.094179124 0.27693647
0.099345595 -0.082254052 0.24187034
0.099801332 -0.081361204 0.23924488
0.10135153 -0.079764128 0.23454875
0.1023818 -0.079011798 0.23233634
0.10168222 -0.075895041 0.22317165
0.10041872 -0.073911816 0.21733975
0.10939059 -0.068209589 0.20057237
0.10986993 -0.067712456 0.19911039
0.11659208 -0.051080525 0.15020382
-0.18665126 -0.12011844 0.35524285
-0.20237693 -0.13184768 0.38993126
-0.14660922 -0.1079644 0.31929809
-0.14548597 -0.10814404 0.31982934
0.11287537 -0.10811132 0.31973237
0.10420904 -0.093578577 0.27675301
0.10039148 -0.079740137 0.23582643
0.10140118 -0.075252503 0.22255474
0.10156372 -0.075021237 0.22187066
0.1057637 -0.074638605 0.22073907
0.10755828 -0.073926389 0.21863276
0.10989359 -0.068669707 0.20308632
0.11035994 -0.05178076 0.15313846
0.11120501 -0.051565528 0.15250194
-0.17878205 -0.11485988 0.34165567
-0.1826821 -0.11931491 0.35490721
-0.14527348 -0.10636562 0.31638908
-0.14419851 -0.10657066 0.31699902
0.10911724 -0.10715449 0.31873548
0.099227458 -0.081216723 0.24158257
0.099325269 -0.080875933 0.24056882
0.099532992 -0.080214649 0.23860168
0.10037664 -0.078481853 0.23344743
0.10089996 -0.07697776 0.22897357
0.10010943 -0.076005965 0.22608298
0.12055269 -0.085733503 0.255018
0.10737815 -0.073698401 0.21921921
0.10745546 -0.073113441 0.21747893
0.11068299 -0.051787287 0.15404367
-0.17246094 -0.11152464 0.33366436
-0.13037002 -0.1057291 0.31632513
0.10351542 -0.09241119 0.27648014
0.10450062 -0.092761219 0.27752739
0.099874645 -0.07802555 0.23344046
0.12269774 -0.086363852 0.25838733
0.11195293 -0.067551076 0.20210236
-0.17729846 -0.109896 0.3307156
-0.17626745 -0.11239353 0.33823174
-0.14378902 -0.10553473 0.31759113
-0.1055347 -0.092267454 0.27766526
-0.10314271 -0.092251182 0.2776162
-0.10147023 -0.095710814 0.28802741
0.10957375 -0.10440284 0.31418449
0.099197835 -0.079426676 0.23902285
0.099605352 -0.07853958 0.23635316
0.10798511 -0.072623968 0.21855098
0.11042944 -0.050768971 0.15278172
0.11226943 -0.050862879 0.15306443
-0.18448949 -0.11742952 0.35546649
-0.20172054 -0.13000339 0.3935284
-0.10294321 -0.092063695 0.27868253
0.10325494 -0.091629446 0.27736795
0.1315051 -0.09316349 0.28201199
0.13161364 -0.091975808 0.27841628
0.10713646 -0.072573364 0.21968418
0.10759047 -0.072562933 0.21965253
0.11194506 -0.067019016 0.20287091
0.11948708 -0.071258307 0.21570337
0.11064103 -0.050419569 0.15262324
-0.18594405 -0.11528492 0.35104084
-0.10677126 -0.092256129 0.28091842
0.10077491 -0.093746364 0.28545624
0.10201934 -0.090519786 0.27563131
0.10428819 -0.090957224 0.27696317
0.10539517 -0.090890795 0.27676117
0.099265248 -0.079783261 0.24293882
0.0997307 -0.076937765 0.23427415
0.10229579 -0.077362925 0.23556888
0.099718481 -0.0746786 0.2273953
0.12869301 -0.089405417 0.27223819
0.10564992 -0.072093129 0.21952248
0.10998771 -0.049974203 0.15217072
0.11221996 -0.050245523 0.15299684
0.11653903 -0.049441993 0.15055007
-0.1037688 -0.091182053 0.27930146
-0.10146338 -0.091796756 0.28118438
-0.10093507 -0.092413485 0.28307354
0.10270873 -0.090071797 0.27590066
0.10620585 -0.090539515 0.27733338
0.1001772 -0.077212304 0.23651046
0.12649694 -0.087756217 0.26880777
0.12718526 -0.087834835 0.26904857
0.1098443 -0.065751314 0.20140421
0.11702123 -0.04948929 0.15159148
0.11698774 -0.048933178 0.1498881
-0.14493969 -0.10487974 0.32318395
-0.14238527 -0.1040228 0.32054347
-0.13070792 -0.10291997 0.31714493
-0.13079742 -0.1040698 0.32068819
-0.10886505 -0.09090665 0.28012627
-0.10571161 -0.090258956 0.27813059
-0.10303494 -0.090518713 0.27893084
0.10633567 -0.090110332 0.27767235
0.10218039 -0.085163057 0.26242769
0.10741392 -0.086670488 0.26707268
0.10828081 -0.065195978 0.20089954
0.10862949 -0.064891219 0.19996047
0.11015311 -0.064781904 0.19962358
-0.14364848 -0.10283256 0.31878567
-0.1079067 -0.090061843 0.27919585
-0.1054782 -0.090026319 0.27908581
-0.099036276 -0.09068206 0.28111851
0.10583058 -0.097886086 0.30345136
0.10591224 -0.089714497 0.27811891
0.10620418 -0.070869327 0.21969837
0.10891464 -0.064418256 0.19969964
0.10990945 -0.064251304 0.19918197
0.10984877 -0.049169958 0.15242916
0.11245063 -0.049744427 0.15421015
0.11671844 -0.048773229 0.15119928
-0.20573556 -0.12709919 0.39640254
-0.14646024 -0.1094026 0.34120977
-0.13261861 -0.10159257 0.31685138
-0.11000833 -0.090264082 0.28151983
0.10576025 -0.070459366 0.21975178
0.11077175 -0.049138546 0.1532554
0.11236754 -0.049408108 0.15409619
0.11595097 -0.048027486 0.14979035
-0.13373932 -0.1008004 0.31629866
-0.10624287 -0.089082122 0.2795282
-0.10303769 -0.088894129 0.27893829
-0.098964304 -0.089523792 0.28091425
0.10349581 -0.097562194 0.30613762
0.10336778 -0.088490188 0.27767104
0.11129817 -0.048784137 0.15307838
0.11152259 -0.048314393 0.15160435
0.11565158 -0.047613025 0.14940357
0.11549643 -0.047418237 0.14879227
0.11590472 -0.047325253 0.14850056
-0.14718848 -0.10153499 0.32055968
-0.13322005 -0.10030338 0.31667137
-0.12901732 -0.10019332 0.31632388
0.10498974 -0.098366618 0.31055671
0.12533179 -0.094679356 0.29891533
0.1088247 -0.063700467 0.20111108
0.11031654 -0.06307888 0.19914836
0.11757413 -0.048376322 0.15273058
-0.1314325 -0.10039026 0.31890315
-0.10995945 -0.088582635 0.28139466
-0.10481957 -0.08830601 0.28051597
0.12451872 -0.093966722 0.29849774
0.10813537 -0.069194615 0.21980596
0.10954061 -0.0479922 0.15245366
0.11126378 -0.048173934 0.15303099
-0.1322636 -0.10040104 0.32091951
-0.10017604 -0.088424861 0.28263897
0.10555485 -0.087206542 0.278745
0.10471275 -0.085070342 0.27191687
0.10537377 -0.08420527 0.26915175
0.10581848 -0.084101528 0.26882011
0.10104015 -0.079870194 0.25529516
0.10512629 -0.081775278 0.26138467
0.11150202 -0.062731951 0.20051479
-0.14634255 -0.099092364 0.3187173
-0.10931268 -0.087452114 0.28127813
-0.1487017 -0.30977648 0.99635404
0.10471079 -0.084540069 0.2719118
0.11159733 -0.064631045 0.20787704
0.10857448 -0.061894715 0.19907594
-0.15319738 -0.10260758 0.33210033
-0.12953797 -0.098127544 0.31760031
-0.10526577 -0.087038696 0.28171009
-0.14442715 -0.30780655 0.9962483
0.10582563 -0.087329328 0.28265065
0.11840788 -0.06787625 0.21968883
0.11483493 -0.045708418 0.14794016
-0.13252106 -0.09770757 0.31824344
-0.13198772 -0.098323643 0.32025021
-0.10687292 -0.086818308 0.28277624
-0.10608003 -0.086664259 0.28227454
-0.1013999 -0.087309837 0.28437722
-0.15400615 -0.30376357 0.98938912
0.10677829 -0.092862189 0.3024615
0.105423 -0.082225084 0.26781553
0.10913745 -0.046634257 0.1518926
0.11115894 -0.046665132 0.15199322
-0.1442222 -0.097642601 0.32005876
-0.1438542 -0.097857594 0.32076353
-0.14229217 -0.097726464 0.3203339
-0.12784389 -0.096129179 0.31509805
-0.15365481 -0.30115128 0.98713201
0.1024507 -0.090731621 0.2974056
0.1061075 -0.085004091 0.27863169
0.10602596 -0.084464699 0.27686363
0.10809407 -0.067032099 0.21972185
0.11581072 -0.046023548 0.15085882
-0.10344216 -0.084398866 0.27842236
0.098662883 -0.087911129 0.29000866
0.10220781 -0.089384973 0.29487097
0.10641232 -0.079779565 0.26318365
0.10668924 -0.066901892 0.22070169
0.11559036 -0.04564321 0.15057176
-0.15170157 -0.099509209 0.33038867
-0.14380205 -0.09657526 0.32064724
-0.12980211 -0.09686777 0.32161868
-0.10095561 -0.083769441 0.2781297
-0.10028762 -0.08420682 0.27958196
-0.098202199 -0.08395654 0.27875102
0.097248226 -0.086639166 0.28765756
0.103434 -0.084168196 0.27945346
0.10715172 -0.066467047 0.2206828
0.10752353 -0.066405445 0.22047794
0.10895965 -0.060172021 0.19978213
0.10951415 -0.045906186 0.15241688
0.11541554 -0.045031071 0.14951152
0.11455002 -0.044447273 0.14757305
0.11491606 -0.044466853 0.14763808
-0.14794943 -0.096872389 0.32372379
-0.14542848 -0.096576691 0.32273573
-0.14282119 -0.096214354 0.32152486
-0.11087301 -0.084905326 0.28373271
-0.10677722 -0.084543288 0.28252298
-0.10461867 -0.083781779 0.27997816
-0.10020259 -0.08309713 0.27769035
-0.14596143 -0.30128819 1.0068312
0.10332492 -0.083536565 0.27915865
0.10524437 -0.083639503 0.27950257
0.10583386 -0.083633184 0.27948165
0.10808238 -0.066030204 0.22065687
0.10977474 -0.045582771 0.15232641
0.11469784 -0.044217318 0.14776349
-0.1359286 -0.096060395 0.32310969
-0.10321307 -0.087101281 0.29297453
0.10614797 -0.082868636 0.27873796
0.11436203 -0.043801486 0.14733088
-0.14657411 -0.095619082 0.32374257
-0.14139715 -0.097294271 0.32941419
-0.1099861 -0.083588719 0.28301084
-0.10334894 -0.08360225 0.2830565
0.10495225 -0.079612017 0.26954657
0.12580022 -0.089070231 0.30156982
0.10574171 -0.065182924 0.22069323
0.11067095 -0.045090288 0.15266448
-0.15141994 -0.29768556 1.0145679
0.094757825 -0.082240403 0.28029096
0.098036319 -0.084023416 0.28636765
0.10155109 -0.085435569 0.29118061
0.1025202 -0.085725635 0.29216903
0.10612991 -0.0786798 0.2681554
0.10675576 -0.077881932 0.26543611
0.1080434 -0.059051037 0.20125711
0.11542991 -0.044118047 0.15036267
-0.14719447 -0.094314307 0.32358509
-0.14659888 -0.094376117 0.32379729
-0.10856298 -0.082326412 0.28245574
-0.10635296 -0.082018822 0.28140038
-0.10379979 -0.082379192 0.28263682
-0.1550211 -0.29431581 1.0097752
-0.13896909 -0.29232925 1.0029593
0.10657725 -0.080665916 0.27675855
0.10621843 -0.078223556 0.26837891
0.12351438 -0.086744905 0.29761493
0.10600522 -0.064485013 0.22124314
0.11266616 -0.05905354 0.20260823
0.11432698 -0.059694618 0.2048077
0.10974041 -0.044516265 0.15273178
-0.10695934 -0.081475437 0.28141338
-0.10569718 -0.08189559 0.28286451
-0.10116604 -0.081170559 0.28036028
-0.14607757 -0.29173225 1.0076325
-0.14439335 -0.29268378 1.0109189
0.10575667 -0.079954624 0.27616042
0.10463086 -0.078230262 0.27020437
0.1043103 -0.063598126 0.21966559
0.10792682 -0.063515961 0.21938193
0.10861161 -0.058342576 0.20151323
0.11147919 -0.044261605 0.15287799
-0.13352731 -0.092690498 0.32231432
-0.13125107 -0.092542738 0.32180047
-0.12881097 -0.091784209 0.31916285
-0.10128015 -0.080716431 0.28067642
-0.14338508 -0.28868818 1.0038598
0.10556152 -0.07754004 0.26963145
0.10834578 -0.077470481 0.26938963
0.10659888 -0.063696921 0.22149438
0.10763791 -0.062648356 0.21784818
0.11120561 -0.057732284 0.20075333
0.10832348 -0.043745577 0.15211725
0.11389187 -0.04231146 0.14713037
-0.14350274 -0.092276573 0.32305902
-0.13352609 -0.09206295 0.32231134
-0.10720471 -0.080565512 0.28205889
0.1050314 -0.080588639 0.28213984
0.1085414 -0.05752179 0.20138299
0.10908899 -0.043495774 0.15227807
0.11127844 -0.043716609 0.1530512
0.11655512 -0.043488443 0.15225232
0.11363569 -0.0418154 0.14639521
-0.13562742 -0.091926664 0.32404
-0.13307625 -0.091600835 0.32289141
-0.13228387 -0.091530144 0.32264197
-0.13052461 -0.091264367 0.32170528
-0.098911822 -0.079169869 0.27907228
-0.14462942 -0.28725594 1.0125716
0.10670236 -0.06289658 0.22170925
0.10716799 -0.062891722 0.2216922
0.11753532 -0.067777157 0.23891312
0.11124387 -0.056752264 0.20005065
0.10941663 -0.043329388 0.15273541
0.11366525 -0.041771621 0.1472441
0.11360016 -0.041632414 0.14675349
0.11390379 -0.041514456 0.14633763
-0.11016509 -0.079866588 0.28347141
-0.10921222 -0.079613745 0.28257382
-0.1072326 -0.079938918 0.28372782
-0.15155315 -0.28610098 1.0154603
0.10426286 -0.079365611 0.2816928
0.10598162 -0.078852534 0.279872
0.10585549 -0.078316629 0.2779699
0.10828331 -0.062557578 0.22203588
0.10987023 -0.056536466 0.20066535
0.11019006 -0.056480557 0.20046711
0.11350217 -0.041311383 0.14662689
-0.128387 -0.089960963 0.32151777
-0.10196576 -0.078599572 0.28091258
-0.099372208 -0.078448057 0.28037107
0.097137183 -0.079391062 0.2837413
0.10667685 -0.075416744 0.26953715
0.10766026 -0.075703144 0.27056086
0.12674531 -0.084580064 0.30228645
0.10946658 -0.056380212 0.20150137
0.1108208 -0.042773485 0.15287119
0.1137875 -0.040903568 0.14618826
-0.1440706 -0.090119213 0.32433754
-0.14156651 -0.089849889 0.32336813
0.1012353 -0.0806548 0.2902751
0.10251895 -0.077860117 0.28021741
0.12275955 -0.083044231 0.29887462
0.10601893 -0.061757267 0.22226328
0.11028221 -0.042520523 0.15303063
0.11443922 -0.041536331 0.14948851
-0.1009222 -0.077628106 0.28135103
0.10036591 -0.079892248 0.2895571
0.10213539 -0.077026069 0.2791689
0.10505107 -0.074852198 0.27128977
0.10610369 -0.074776649 0.27101618
0.12328705 -0.082388788 0.29860508
0.10656503 -0.061366081 0.22241163
0.10707179 -0.061384052 0.22247678
0.11019209 -0.055098057 0.19969416
0.10965016 -0.053990602 0.19568038
0.11077049 -0.042159826 0.15280181
-0.14776102 -0.088576913 0.32331157
-0.13165826 -0.088436484 0.32279879
-0.10836455 -0.07767427 0.28351629
-0.10565683 -0.07746622 0.28275663
0.10321733 -0.076844543 0.28048766
0.10583612 -0.077005208 0.28107411
0.10626176 -0.076878637 0.28061181
0.10789421 -0.074285984 0.27114868
0.10999671 -0.041941315 0.15308851
0.11106041 -0.041848958 0.15275139
0.11378208 -0.040719867 0.14863008
0.11384645 -0.040516645 0.14788836
-0.14274061 -0.088693261 0.32605004
-0.12841403 -0.087478787 0.32158566
-0.10903859 -0.077171206 0.28369325
-0.1030218 -0.076754272 0.28216058
0.097388417 -0.077870011 0.28626227
0.10262468 -0.079557836 0.29246676
0.10650077 -0.073596835 0.27055341
0.10709241 -0.060530514 0.22251964
0.10856023 -0.060027301 0.22066957
0.10891607 -0.055409431 0.20369363
0.10904083 -0.041778892 0.15358561
-0.14314076 -0.087452203 0.32380229
-0.14215177 -0.087269962 0.32312739
-0.14125195 -0.087140918 0.32264942
-0.14143828 -0.089439154 0.33115894
-0.13509375 -0.087172061 0.32276505
-0.10139844 -0.076803237 0.28437316
0.10181943 -0.078849614 0.29195017
0.10675463 -0.073245019 0.27119833
0.12103632 -0.079586744 0.29467928
0.10529724 -0.059888333 0.22174388
0.1091595 -0.059927195 0.22188765
0.10964623 -0.055382192 0.20505911
0.10905084 -0.054644644 0.20232821
0.11354205 -0.039945722 0.14790362
-0.14726797 -0.088048935 0.32837552
-0.10455418 -0.075893849 0.28304368
-0.10174003 -0.075600803 0.28195107
0.10268119 -0.078463733 0.29262769
0.10408142 -0.072875232 0.27178597
0.10484281 -0.073000908 0.27225465
0.10680273 -0.07275036 0.2713204
0.10704377 -0.072520852 0.27046436
0.12635222 -0.081216156 0.30289292
0.10591212 -0.059536457 0.2220394
0.10963443 -0.054758668 0.20422065
0.10955539 -0.05323559 0.19854039
0.1133934 -0.03971678 0.14812231
0.1134415 -0.039186597 0.14614505
-0.13069713 -0.085748017 0.32213056
-0.1103313 -0.075571239 0.28389913
0.099095315 -0.077051818 0.28946114
0.10567644 -0.074706376 0.28065008
0.10916618 -0.054345787 0.20416123
0.10936865 -0.040760487 0.15312541
0.11317292 -0.039025217 0.14660639
-0.14546588 -0.086120605 0.32591063
0.10373649 -0.074490607 0.2818985
0.105786 -0.073818564 0.27935529
0.10658976 -0.071943104 0.2722578
0.1066775 -0.071611315 0.27100247
0.10889271 -0.071926773 0.27219599
0.11080864 -0.054760545 0.20723307
0.10981408 -0.054052949 0.20455533
0.10823765 -0.051632494 0.19539553
0.11126718 -0.040320575 0.15258723
0.096736699 -0.075533748 0.28796494
0.096910864 -0.075191379 0.28665966
0.099298388 -0.076559752 0.29187667
0.10460171 -0.074994802 0.28591031
0.12564793 -0.079824567 0.30432326
0.10939315 -0.053237617 0.20296323
0.109409 -0.052826375 0.20139545
0.11101928 -0.039934725 0.15224725
0.1141831 -0.039453804 0.15041369
0.11467031 -0.039510906 0.15063149
-0.14839235 -0.084142715 0.32318151
-0.1393235 -0.086225063 0.33117956
-0.13388285 -0.083708525 0.32151377
-0.099904299 -0.073387533 0.28187233
0.10461757 -0.074450135 0.2859537
0.10414115 -0.073680639 0.28299803
0.10553542 -0.073388398 0.28187543
0.10701111 -0.070017755 0.26892942
0.12833264 -0.080096602 0.30764055
0.11042407 -0.039893925 0.15322757
0.11060253 -0.03972277 0.15257007
-0.14742127 -0.084142864 0.32561362
-0.14691845 -0.084253609 0.32604229
-0.14488661 -0.08388415 0.32461268
-0.13923082 -0.083405405 0.32276016
-0.1053912 -0.07330358 0.28366834
0.10552821 -0.072835356 0.28185618
0.10954037 -0.070381403 0.27235985
0.12825087 -0.079447657 0.30744433
0.10817721 -0.05757311 0.22279477
0.1090515 -0.052078068 0.20153022
0.10871926 -0.039452791 0.15267307
0.11424616 -0.038890332 0.15049678
0.11294332 -0.038018703 0.14712363
0.11323109 -0.037799835 0.14627665
-0.14727172 -0.082260072 0.32074094
-0.14773014 -0.083684713 0.32629597
-0.14416191 -0.083235145 0.324543
-0.14222515 -0.082914889 0.32329422
-0.14113221 -0.082679391 0.32237595
-0.13795689 -0.083678901 0.32627344
-0.13272151 -0.083021343 0.32370931
-0.10575554 -0.07300356 0.2846489
0.10290459 -0.072137415 0.28127146
0.105423 -0.072215319 0.28157532
0.10518607 -0.070444345 0.27467042
0.10856667 -0.069600761 0.27138096
0.10954532 -0.051513314 0.20085609
0.10935882 -0.039268345 0.15311158
0.11318508 -0.037500173 0.14621729
-0.13680711 -0.083193511 0.32685858
-0.13571748 -0.082954466 0.32591957
-0.11023191 -0.07259351 0.28521198
0.10468057 -0.069574386 0.27335036
0.10581067 -0.069549143 0.27325124
0.12696609 -0.078270346 0.30751586
0.10729751 -0.056745142 0.22294581
0.10829857 -0.056521595 0.22206724
0.10977539 -0.050831765 0.19971263
0.1097956 -0.039009571 0.15326446
0.11333928 -0.037163973 0.14601332
-0.14737788 -0.083003044 0.32862055
-0.14029321 -0.082144856 0.32522291
-0.13298589 -0.081925422 0.32435423
-0.1031749 -0.071374029 0.28257978
0.10375038 -0.075139344 0.29748696
0.10573176 -0.068966359 0.27304745
0.1068224 -0.068916976 0.272852
0.12478784 -0.077138424 0.30540192
0.10786608 -0.056359828 0.22313631
0.11277726 -0.037002832 0.1464994
0.11272362 -0.036882818 0.14602435
-0.14537266 -0.081632495 0.32570159
-0.14626792 -0.082530439 0.32928431
-0.13390002 -0.081429124 0.32489008
-0.13206938 -0.081157565 0.32380676
-0.12857008 -0.080698818 0.32197642
-0.10802421 -0.071234465 0.28421503
-0.10012892 -0.070806146 0.28250617
-0.099510908 -0.070796072 0.28246588
0.10239658 -0.070560932 0.2815277
0.10559937 -0.069892943 0.27886248
0.10641065 -0.055912971 0.22308445
0.10828498 -0.055896074 0.2230168
0.10991189 -0.050312996 0.20074153
0.10732409 -0.048373103 0.19300151
0.10744515 -0.048242241 0.19247943
0.11050561 -0.038432658 0.15334064
0.11059418 -0.038349688 0.15300965
0.11390939 -0.037503123 0.14963198
0.11399308 -0.037425637 0.14932257
-0.14803168 -0.081312686 0.32696205
-0.14653829 -0.081259519 0.32674831
-0.14601544 -0.08135736 0.3271417
-0.14290556 -0.081179559 0.32642686
-0.13832656 -0.080949664 0.32550216
-0.11026481 -0.070950985 0.2852971
-0.10624743 -0.070712209 0.2843371
-0.10047325 -0.07007587 0.2817784
-0.09940213 -0.070170045 0.282157
0.10338739 -0.073723555 0.29644591
0.10264876 -0.070186019 0.28222096
0.1058754 -0.069141805 0.27802235
0.10536352 -0.068043679 0.27360684
0.1062502 -0.067862988 0.27288002
0.10700694 -0.067604214 0.27183926
0.10600874 -0.06625396 0.26641041
0.12473318 -0.075522602 0.3036797
0.12767908 -0.076509953 0.30765015
0.11011478 -0.050014883 0.20111209
0.10839823 -0.038084984 0.15314144
0.10898033 -0.038059652 0.15303957
0.10984924 -0.038134217 0.15333945
0.11372247 -0.036335021 0.14610475
-0.12920702 -0.079415292 0.32184863
-0.10010961 -0.066486657 0.26945251
-0.10261157 -0.069753408 0.28269178
-0.10198966 -0.069741368 0.28264266
0.10164759 -0.073263317 0.29691631
0.10199675 -0.073058844 0.29608774
0.10670999 -0.067254573 0.27256483
0.10616377 -0.047472596 0.19239384
0.10649613 -0.047255218 0.1915127
-0.14662775 -0.080037802 0.32694799
-0.14646491 -0.080331802 0.32814878
-0.14185041 -0.079709291 0.32560623
-0.1373637 -0.079129279 0.32323653
-0.13942054 -0.081130207 0.33141011
-0.13371292 -0.079013169 0.32276231
-0.10618505 -0.069565713 0.28417021
-0.10252258 -0.069143802 0.28244668
-0.09787342 -0.068425745 0.27951366
0.10769764 -0.068463504 0.27966803
0.10668376 -0.066708326 0.27249789
0.10933039 -0.067624837 0.27624178
0.12723413 -0.075051159 0.30657798
0.10760787 -0.054735661 0.22359079
0.11020401 -0.037547112 0.153377
-0.14594457 -0.079410613 0.32698298
-0.1388213 -0.078936696 0.3250317
-0.12933263 -0.078658521 0.32388604
-0.09902662 -0.068682104 0.28280687
0.10590419 -0.070300341 0.28947043
0.10687235 -0.065935493 0.27149743
0.10611978 -0.065117538 0.26812959
0.10585406 -0.064605594 0.26602161
0.12781861 -0.074413896 0.30640835
0.10882607 -0.049035847 0.20191115
0.10680708 -0.046826184 0.19281286
0.10765639 -0.036937177 0.15209347
0.11264375 -0.035834998 0.14755499
-0.14813867 -0.078826696 0.32719827
-0.14599684 -0.078803092 0.3271001
-0.10813552 -0.068542033 0.28450793
0.092276305 -0.067028999 0.27822775
0.10263351 -0.071777076 0.29793602
0.1088635 -0.036829829 0.15287554
0.11255911 -0.035127938 0.1458112
-0.13774931 -0.078647316 0.32910967
-0.11005631 -0.068426877 0.28634107
0.099486023 -0.0707708 0.29614913
0.10243425 -0.071503282 0.2992143
0.10305396 -0.070613205 0.29549009
0.10571465 -0.067474186 0.2823543
0.10879341 -0.048621774 0.20346421
0.1098654 -0.048138827 0.2014429
0.10629907 -0.04585728 0.1918959
0.11280087 -0.034919322 0.14612442
0.11322352 -0.034953356 0.14626694
-0.14348674 -0.077686161 0.3277542
-0.13368517 -0.076883703 0.32436889
-0.10901543 -0.067604244 0.28521907
-0.10048541 -0.06639871 0.28013331
-0.099883735 -0.066797197 0.28181434
-0.099582672 -0.066999853 0.28266954
0.10104999 -0.070847631 0.29890305
0.10294846 -0.070835292 0.29885066
0.10663894 -0.065636873 0.27691889
0.12736955 -0.07274425 0.30690432
0.10498849 -0.052641779 0.2220934
0.1079987 -0.052954018 0.22341055
0.11155787 -0.054219663 0.22875029
0.10960153 -0.048779458 0.20579821
0.10860047 -0.047948986 0.20229477
0.10883573 -0.047862351 0.20192897
0.11081472 -0.036339521 0.15331477
0.11242226 -0.03480804 0.14685374
0.1133875 -0.034719169 0.14647883
0.11549285 -0.03507331 0.14797288
-0.14733693 -0.076864779 0.32697099
-0.13856435 -0.077038497 0.32771009
-0.12862054 -0.07572031 0.32210273
-0.11038303 -0.067139924 0.28560305
-0.10065731 -0.066362172 0.28229463
-0.096241236 -0.065009415 0.27654028
0.10555175 -0.066273987 0.2819193
0.1063371 -0.064201474 0.2731033
0.1058096 -0.06251049 0.26590985
0.12408146 -0.071387887 0.30367309
0.10983017 -0.047340274 0.20137829
0.10644737 -0.045174062 0.19216353
0.11251953 -0.034552455 0.14698082
-0.14715505 -0.076497734 0.32812363
-0.14439973 -0.076154202 0.3266502
-0.097092777 -0.065042198 0.27898705
0.10124663 -0.06982094 0.29948467
0.1036447 -0.069711685 0.2990163
0.10607591 -0.064219117 0.27545667
0.10633758 -0.063670754 0.27310473
0.10770145 -0.051713258 0.22181487
0.11009923 -0.035830438 0.15368837
-0.14378822 -0.075933546 0.32844293
-0.14049789 -0.075673819 0.3273192
-0.12914002 -0.074768513 0.3234036
-0.10971323 -0.066362619 0.28704476
-0.10848004 -0.066358864 0.28702849
-0.099780083 -0.065085769 0.28152198
0.10541627 -0.063287556 0.27374375
0.10753307 -0.051201761 0.22146815
0.10658291 -0.044655681 0.1931535
0.1067166 -0.044539154 0.19264954
0.10697773 -0.035153508 0.15205288
0.11208263 -0.034134865 0.14764678
0.11275175 -0.034051001 0.14728421
0.11294571 -0.033920169 0.1467182
0.11329743 -0.033931613 0.14676762
-0.14446875 -0.075283766 0.32839411
-0.13744238 -0.074518621 0.32505649
-0.10942945 -0.06563431 0.28630221
0.10165897 -0.068935901 0.3007043
0.10558382 -0.062855035 0.27417886
0.10672215 -0.044337928 0.19340581
-0.14876965 -0.075044513 0.33015049
-0.13867497 -0.073803127 0.32468909
-0.10923406 -0.064961433 0.28579116
0.099820167 -0.067974448 0.29904634
0.10179642 -0.068443686 0.30111092
0.10797033 -0.050768733 0.2233519
0.10634115 -0.043468207 0.19123393
0.10975555 -0.034929156 0.15366709
0.11264673 -0.033447117 0.14714694
-0.15070546 -0.074313313 0.32975417
-0.10856435 -0.064370871 0.28563613
0.10256407 -0.067940503 0.3014757
0.10343036 -0.067664087 0.3002494
0.1057246 -0.06221658 0.27607679
0.11759326 -0.056059957 0.24875754
0.10677841 -0.05044803 0.22385556
0.1090503 -0.045596361 0.20232707
0.10736319 -0.044018149 0.19532418
0.11473063 -0.03330943 0.14780581
-0.14651591 -0.073338956 0.3282631
-0.13169569 -0.072902769 0.32631063
-0.10932204 -0.063901544 0.28602123
-0.10359344 -0.063388795 0.2837261
-0.10120943 -0.063797265 0.28555465
0.10292765 -0.067593038 0.30254436
0.10177788 -0.062887132 0.28148079
0.10516718 -0.063480347 0.284136
0.10593775 -0.062856495 0.28134382
0.10542253 -0.062197804 0.27839559
0.10565826 -0.061298907 0.2743721
0.1050227 -0.059284955 0.26535761
0.10818198 -0.049777955 0.22280461
0.11797121 -0.054044455 0.24190104
0.10915712 -0.045068502 0.20172536
0.10743114 -0.04332906 0.19393957
0.10865417 -0.034191668 0.15304101
0.11052492 -0.034264624 0.1533674
0.11083153 -0.034258038 0.15333807
0.11370799 -0.033559412 0.1502108
-0.14773607 -0.072956771 0.32941931
-0.13842747 -0.072141826 0.32573968
-0.13282877 -0.07212615 0.32566875
-0.12987778 -0.072421312 0.32700151
-0.10868689 -0.063331485 0.28595859
-0.10167953 -0.063154966 0.28516155
-0.097290546 -0.061535478 0.27784884
-0.095673978 -0.060884655 0.27491027
0.10282949 -0.066940844 0.30225569
0.10568848 -0.063607156 0.28720307
0.10570648 -0.062173486 0.28072983
0.10570374 -0.060791701 0.2744903
0.10892239 -0.044756979 0.20208973
0.10802773 -0.033800423 0.15261811
0.11241743 -0.03252247 0.14684749
-0.13367489 -0.071573257 0.32603472
-0.10238448 -0.061558545 0.28041494
-0.095623255 -0.060318142 0.27476448
0.094776779 -0.068469763 0.3118971
0.088241547 -0.06200397 0.28244412
0.10152498 -0.066345096 0.30221891
0.10478768 -0.062150329 0.2831108
0.12485722 -0.067081124 0.30557173
0.10891345 -0.043667734 0.19891793
0.10762855 -0.033481002 0.15251464
0.10811153 -0.033529758 0.15273649
0.11049727 -0.033560246 0.1528756
0.11224094 -0.032276392 0.14702737
0.11576203 -0.0326491 0.14872497
-0.14935574 -0.071106076 0.32680094
-0.13946179 -0.071047425 0.32653135
-0.13532418 -0.070708811 0.32497519
-0.10937297 -0.062612295 0.28776377
0.089610249 -0.067486703 0.310166
0.092829853 -0.069398016 0.31895047
0.095392734 -0.064665675 0.29720086
0.1055645 -0.058350086 0.26817483
0.11604074 -0.047408819 0.21788901
0.10981205 -0.033452392 0.15374613
0.11052617 -0.033469707 0.15382534
0.11296925 -0.031841576 0.14634258
-0.14530596 -0.070880264 0.3287003
-0.13915911 -0.07025972 0.32582265
0.063100725 -0.058313787 0.2704246
0.090505511 -0.067055702 0.31096458
0.088097602 -0.06340912 0.29405344
0.12158087 -0.064842224 0.30069941
0.11476293 -0.052828252 0.24498564
0.11063257 -0.04515785 0.20941502
0.10644928 -0.04143852 0.19216704
0.10954073 -0.033170819 0.15382659
0.11065927 -0.033112019 0.15355384
0.11250606 -0.031868786 0.14778847
-0.13314268 -0.06975776 0.32643837
-0.10212526 -0.059423298 0.27807719
0.091580957 -0.064859271 0.30351502
0.10057959 -0.0643906 0.30132169
0.10500994 -0.060979426 0.28535897
0.10862264 -0.059289396 0.27745014
0.10631493 -0.057402968 0.26862258
0.11508021 -0.052258134 0.24454707
0.11055902 -0.049978107 0.23387736
0.10680822 -0.048065215 0.22492576
0.10768977 -0.047395289 0.22179085
0.10871652 -0.043622702 0.20413649
0.10988668 -0.043224812 0.20227468
0.10738871 -0.041749418 0.19537055
0.10717013 -0.041503072 0.19421774
0.10760441 -0.032683134 0.15294367
0.11065665 -0.032910287 0.15400702
0.11079505 -0.032853782 0.15374219
0.1122568 -0.031248301 0.14622933
0.11297384 -0.031273693 0.14634842
-0.144133 -0.069375575 0.32763094
-0.10669634 -0.060810417 0.28718114
-0.10193855 -0.060536563 0.2858879
-0.10149282 -0.060635328 0.28635424
0.05420199 -0.055261075 0.26097399
0.05527404 -0.055779934 0.26342446
0.063782483 -0.057880908 0.27334625
0.077975065 -0.062717587 0.29618782
0.089809269 -0.065339923 0.30857223
0.088602811 -0.063992292 0.30220765
0.087836772 -0.059128463 0.27923822
0.10260096 -0.06426394 0.3034907
0.10383537 -0.063432992 0.29956645
0.10621598 -0.062202454 0.29375505
0.12184313 -0.063810199 0.30134791
0.12565866 -0.064113885 0.30278176
0.11100337 -0.049948245 0.23588377
0.10780266 -0.047430903 0.22399539
0.10846713 -0.043126643 0.20366818
0.10824743 -0.032480568 0.1533916
0.110935 -0.032595932 0.15393645
0.1110855 -0.032543629 0.1536895
0.11450306 -0.031235695 0.14751256
0.069310814 -0.057573885 0.27441615
0.079710633 -0.063524842 0.30278033
0.092519671 -0.063879192 0.30446947
0.091408521 -0.062671155 0.29871172
0.087510437 -0.059582412 0.28398961
0.094253093 -0.060799509 0.28979069
0.10543624 -0.057764292 0.27532357
0.10464129 -0.055772394 0.26582956
