# .PCD v0.7 - Point Cloud Data file format
VERSION 0.7
FIELDS x y z
SIZE 4 4 4
TYPE F F F
COUNT 1 1 1
WIDTH 1332
HEIGHT 1
VIEWPOINT 0 0 0 1 0 0 0
POINTS 1332
DATA ascii
0.21366452 -0.028603738 0.36864772
0.19755338 -0.026253249 0.33835456
0.20480442 -0.026631873 0.34323481
0.22662376 -0.0277777 0.35800156
0.24665724 -0.025717841 0.33145434
0.25947121 -0.026152497 0.33705702
0.26503304 -0.026565595 0.34238064
-0.22461386 -0.03489352 0.46127006
-0.22494431 -0.035098895 0.46398526
-0.13842794 -0.031849623 0.4210321
-0.15305091 -0.041723736 0.55156153
-0.054685589 -0.022291018 0.29467317
-0.053394042 -0.022543531 0.29801089
0.0043850574 -0.021637732 0.28603715
0.0065559153 -0.022809414 0.30152559
0.02510584 -0.02211858 0.29239336
0.10807656 -0.053744458 0.7104674
0.14274423 -0.042040445 0.55574816
0.15211859 -0.044067957 0.58255017
0.16064584 -0.045788687 0.60529751
0.25559059 -0.042837258 0.56628144
0.24388656 -0.038851816 0.51359683
0.24208052 -0.037882116 0.50077766
0.24753103 -0.038395513 0.50756437
0.20269346 -0.025882315 0.3421483
0.20476709 -0.025867138 0.34194744
0.22421013 -0.02772945 0.36656591
0.21192604 -0.025155379 0.33253795
0.21555303 -0.02499898 0.33047098
0.2193334 -0.024630331 0.32559723
0.21993813 -0.024312556 0.32139665
0.22297283 -0.024343885 0.32181069
0.22075705 -0.023450891 0.31000599
0.26463792 -0.025790092 0.34092858
-0.23214537 -0.033944651 0.46056464
-0.1408051 -0.032844972 0.44564408
-0.13987891 -0.033304736 0.45188266
-0.077047907 -0.02354791 0.31950089
-0.063632779 -0.022661453 0.30747318
-0.062838972 -0.022612298 0.30680579
-0.047945 -0.021803316 0.29582953
-0.047512494 -0.021895358 0.29707891
0.01186661 -0.021342669 0.28958008
0.012109193 -0.020699337 0.28085142
0.29852161 -0.053014375 0.71930486
0.28401384 -0.049171738 0.66716748
0.24979512 -0.040031575 0.54315263
0.24916106 -0.039562263 0.53678465
0.22309592 -0.034165047 0.46355492
0.24442616 -0.036939424 0.5011977
0.21156736 -0.027103378 0.36774144
0.21292365 -0.026976431 0.36601943
0.20315981 -0.025094008 0.34047836
0.20417191 -0.025039652 0.33974072
0.22031893 -0.024493679 0.33233273
0.22224548 -0.023713924 0.3217535
0.22076157 -0.022848571 0.31001216
0.24458763 -0.023948817 0.32494032
0.24057025 -0.023356449 0.31690329
0.24560298 -0.023645405 0.32082337
-0.23591523 -0.032888561 0.4583261
-0.13958214 -0.032582369 0.45405969
-0.1531187 -0.039293826 0.54758847
-0.065095611 -0.022114124 0.30817646
-0.055501111 -0.020977255 0.29233402
-0.05390536 -0.021086376 0.29385412
-0.052851509 -0.021167314 0.29498261
-0.048173651 -0.021051722 0.29337132
0.017107451 -0.020386901 0.28410661
0.02028909 -0.021172427 0.29505357
0.023083102 -0.020848045 0.29053342
0.023793571 -0.020926811 0.29163042
0.024969392 -0.020867568 0.29080486
0.11289095 -0.052514866 0.73183322
0.11069331 -0.050788846 0.70778006
0.12063653 -0.049895894 0.69533652
0.15864582 -0.043242395 0.6026147
0.17261072 -0.046297085 0.64518386
0.2942884 -0.056726832 0.79053003
0.27910456 -0.045894891 0.63957918
0.25368959 -0.040332995 0.56206965
0.2508904 -0.039329205 0.54808158
0.21889365 -0.032929618 0.45889869
0.21984403 -0.032925095 0.45883572
0.21930276 -0.025461346 0.35482308
0.21338783 -0.023552887 0.32822701
0.21879846 -0.023836641 0.3321811
0.21892911 -0.022956969 0.31992182
0.22274436 -0.023068829 0.32148099
0.22342528 -0.023068171 0.32147229
0.22317591 -0.022693461 0.31625
0.22200787 -0.022371411 0.31176242
0.24475312 -0.023266736 0.32423925
0.25547281 -0.023747832 0.33094403
-0.22896382 -0.031984236 0.4581379
-0.1422397 -0.032303095 0.46270475
-0.14310019 -0.034412608 0.49292123
-0.1272698 -0.034984276 0.5011099
-0.13467337 -0.037333656 0.53476143
-0.071455725 -0.021645786 0.31005087
-0.066918567 -0.021465816 0.30747318
-0.064465493 -0.021306656 0.30519375
-0.052497722 -0.020955879 0.30016872
-0.047417123 -0.020698501 0.29648247
0.0097529367 -0.019697741 0.2821475
0.012997098 -0.019146634 0.27425343
0.017852213 -0.019988552 0.2863133
0.018508755 -0.020036779 0.28700423
0.019580973 -0.020517468 0.29388994
0.024353476 -0.020306824 0.29087219
0.18275648 -0.048074208 0.68860811
0.25414118 -0.046330702 0.663634
0.26183063 -0.040692098 0.58286691
0.24376264 -0.036163352 0.51799899
0.21630403 -0.031800848 0.45551103
0.22739349 -0.025685357 0.36791375
0.22352138 -0.02204599 0.31578347
0.24269725 -0.023581298 0.33777472
0.24791712 -0.023191659 0.33219379
0.24613352 -0.022509079 0.3224166
-0.22838038 -0.03101428 0.45697069
-0.22789477 -0.031081263 0.4579573
-0.14822865 -0.033187155 0.48898613
-0.14778647 -0.034297265 0.50534302
-0.15303256 -0.038015261 0.56012464
-0.15075511 -0.03834955 0.56504977
-0.1327156 -0.035465237 0.52255225
-0.14061436 -0.038219299 0.56313115
-0.072384529 -0.021516034 0.31702128
-0.062157732 -0.021035956 0.30994841
0.0026059889 -0.019832017 0.29220951
0.10774041 -0.04267285 0.62875026
0.27295896 -0.05184783 0.76393664
0.25221616 -0.044699207 0.65860713
0.30399126 -0.049206372 0.7250163
0.21918139 -0.030909076 0.45542127
0.2107732 -0.023469552 0.34580597
0.21545702 -0.023907285 0.3522552
0.21439432 -0.022381591 0.32977498
0.21447222 -0.021404536 0.3153792
0.23915586 -0.022523014 0.33185896
0.24679753 -0.022508357 0.33164325
0.25217423 -0.021988308 0.32398012
-0.23415199 -0.029742302 0.45115411
-0.22974749 -0.029922182 0.45388269
-0.22919229 -0.029976472 0.45470572
-0.22726311 -0.030236948 0.45865765
-0.13377786 -0.036250353 0.54987276
-0.064817645 -0.020229733 0.30686009
-0.064365052 -0.020503465 0.31101215
0.025442254 -0.019059975 0.28911608
0.11027899 -0.047129799 0.71490103
0.10642833 -0.040441122 0.61344147
0.17608023 -0.045193966 0.68553585
0.24837938 -0.036451403 0.55292237
0.21834655 -0.029909244 0.45368618
0.23057567 -0.030370522 0.46068302
0.23661864 -0.029057011 0.44075948
0.20889537 -0.023760589 0.36041889
0.20345053 -0.022971854 0.34845456
0.23255859 -0.024301404 0.36862203
0.21393606 -0.021003427 0.31859604
-0.22806495 -0.029072551 0.45439592
-0.14423601 -0.031100808 0.4860974
-0.14335562 -0.032552328 0.50878412
-0.073236868 -0.020144928 0.31485948
-0.06954129 -0.019858258 0.31037951
-0.067677982 -0.019895626 0.31096256
-0.054898497 -0.018711254 0.29245237
-0.011103479 -0.017654011 0.27592772
-0.010530001 -0.017681291 0.27635372
-0.008872631 -0.017912745 0.27997193
0.0049547357 -0.018147977 0.28364804
0.014501552 -0.018733196 0.29279512
0.02068097 -0.01811615 0.28315112
0.02601175 -0.018463377 0.28857863
0.1022113 -0.046237547 0.72268039
0.099380724 -0.03905502 0.61041975
0.11678487 -0.043604821 0.68153161
0.10907938 -0.039258718 0.61360329
0.18004844 -0.043057989 0.67298484
0.25831801 -0.047389392 0.74068332
0.24548991 -0.035816897 0.55980831
0.24932049 -0.035851572 0.5603503
0.2212186 -0.026900223 0.42044252
0.2357948 -0.027129754 0.42403069
0.20900856 -0.019419959 0.30352923
-0.2341243 -0.027869878 0.44925073
-0.23017222 -0.027973052 0.45091379
-0.13518405 -0.027861757 0.44912043
-0.13389838 -0.02779419 0.44803065
-0.14500086 -0.032417171 0.52255136
-0.15078117 -0.035342772 0.56971109
-0.15039273 -0.035538752 0.57287037
-0.06725353 -0.018983562 0.30600736
-0.057750776 -0.018253934 0.29424572
0.0055211564 -0.017470377 0.28161544
0.0073453756 -0.017514644 0.28232917
0.01953184 -0.017620804 0.28404039
0.10459045 -0.045193017 0.72849244
0.10695493 -0.044878501 0.72342271
0.18341385 -0.041534446 0.66951787
0.24902986 -0.034066919 0.54914492
0.2101187 -0.027327187 0.44050285
0.22458912 -0.026588125 0.42858955
0.23318397 -0.026523769 0.42755264
0.23223892 -0.026109336 0.42087176
0.21034554 -0.021334164 0.34389859
0.22630842 -0.022715064 0.36615804
0.2145218 -0.02095235 0.33774397
0.21943854 -0.021360697 0.34432638
-0.22897016 -0.027413892 0.45619941
-0.23716091 -0.029923743 0.49796546
-0.073803112 -0.018893147 0.31440416
-0.06595438 -0.018391037 0.3060486
-0.064851485 -0.01826461 0.30394509
-0.042373989 -0.017309273 0.2880466
0.011410758 -0.01673292 0.27845544
0.021262411 -0.016996067 0.28283444
0.02183607 -0.016972044 0.28243449
0.024157763 -0.017338589 0.2885341
0.026087575 -0.017391769 0.28941903
0.092541508 -0.039318796 0.65430993
0.10576671 -0.043619525 0.72587985
0.18346243 -0.040243305 0.66969508
0.1855334 -0.040072292 0.6668492
0.26742035 -0.046361644 0.77151114
0.29038474 -0.043386918 0.72200865
0.2386788 -0.030617449 0.50950974
0.21404491 -0.026845051 0.44673204
0.22329652 -0.02539932 0.42267489
0.21719846 -0.021264492 0.35386577
0.22664949 -0.022112789 0.36798251
0.21512337 -0.020700898 0.3444871
0.21550272 -0.020320103 0.33815041
0.23447157 -0.021816073 0.36304435
0.21560243 -0.019928517 0.33163387
-0.23246413 -0.026480587 0.45540354
-0.23158501 -0.026603326 0.45751286
-0.23717926 -0.029088294 0.50024921
-0.15088142 -0.023479143 0.40378538
-0.15045352 -0.023547277 0.40495697
-0.13139237 -0.024512591 0.42155725
-0.073777236 -0.01827549 0.31429449
-0.062116563 -0.017274436 0.29707929
-0.048785582 -0.016626379 0.28593329
-0.043360248 -0.016423199 0.28243992
-0.026278133 -0.016312018 0.28052711
0.0037352114 -0.016462356 0.28311312
0.013708564 -0.016820123 0.28926629
0.021312719 -0.016485021 0.28350326
0.021933973 -0.016496535 0.28370163
0.16223381 -0.039700929 0.68276107
0.18253562 -0.038744505 0.6663121
0.18689036 -0.039059337 0.67172676
0.1837389 -0.037535612 0.6455223
0.27204037 -0.045080639 0.77527845
0.27261266 -0.044902004 0.77220619
0.28541532 -0.041707922 0.71727639
0.2875444 -0.041794583 0.71876645
0.24698713 -0.031521007 0.54208565
0.21489359 -0.026079431 0.4485037
0.21556059 -0.025701758 0.4420085
0.23016013 -0.025435943 0.43743694
0.21759906 -0.019526457 0.33580872
-0.23323305 -0.025256833 0.44938353
-0.23369724 -0.028082671 0.49966198
-0.23528828 -0.030059693 0.53483802
-0.13978165 -0.022997731 0.40918866
-0.12885271 -0.023890229 0.42506799
-0.058716226 -0.016814107 0.29916582
-0.048592042 -0.016006662 0.28479898
-0.041604072 -0.01589503 0.28281307
-0.030800903 -0.015627472 0.27805334
-0.015821513 -0.015508149 0.2759299
-0.014755446 -0.015628241 0.27806672
-0.012407695 -0.01566552 0.27872977
-0.0011341086 -0.016319981 0.29037344
0.013548228 -0.016067579 0.28588298
0.018379364 -0.018465865 0.3285549
0.020121153 -0.015483198 0.27548617
0.09284354 -0.036894429 0.65644568
0.11161931 -0.040112376 0.71370125
0.15458569 -0.036238454 0.64477432
0.17633571 -0.03481869 0.61951286
0.27510616 -0.043797549 0.77926928
0.24501258 -0.030365864 0.5402863
0.24174434 -0.029271023 0.52080631
0.2412138 -0.029072912 0.51728129
0.21292171 -0.025314854 0.45041576
0.23603114 -0.025212519 0.4485949
0.23671758 -0.025183564 0.4480795
0.20966275 -0.020869898 0.37132856
0.22747184 -0.021123338 0.37583855
0.23334526 -0.020509912 0.36492348
0.21917875 -0.018948071 0.33713448
-0.24794154 -0.024603639 0.45344767
-0.23865858 -0.024348682 0.44874907
-0.23678459 -0.024254987 0.44702193
-0.23265325 -0.025258686 0.4655202
-0.23268455 -0.026273292 0.48422042
-0.22948654 -0.026381599 0.48621574
-0.22263446 -0.026555913 0.48942879
-0.23420349 -0.029313188 0.54024577
-0.1532422 -0.02250926 0.41484922
-0.12782556 -0.023042293 0.42467311
-0.15359056 -0.032269776 0.5947355
-0.132534 -0.029558148 0.54475981
-0.13023466 -0.02956482 0.54488283
-0.072054625 -0.016964082 0.31264952
-0.071656592 -0.017028255 0.31383303
-0.061223138 -0.015887339 0.29280633
-0.060901564 -0.015967099 0.29427612
-0.042334538 -0.015173657 0.27965233
-0.041910987 -0.01523704 0.28082028
-0.031942792 -0.015064897 0.27764869
-0.018189261 -0.014978803 0.27606127
-0.015336345 -0.015074375 0.27782279
-0.011765721 -0.015064468 0.27764037
-0.010477702 -0.01492017 0.27498126
0.0078822086 -0.015190351 0.27996069
0.012751529 -0.015289203 0.2817823
0.020866821 -0.015060781 0.27757233
0.024118042 -0.015629871 0.28806069
0.02626827 -0.015812373 0.29142413
0.098334931 -0.037724808 0.69527268
0.10208634 -0.038580913 0.71105123
0.105726 -0.033065073 0.6093933
0.10937797 -0.033384677 0.61528265
0.15854512 -0.035563864 0.65544552
0.18471359 -0.035748083 0.65884149
0.17489401 -0.032367159 0.5965305
0.27289909 -0.043252438 0.79714811
0.28871199 -0.043324325 0.79847258
0.22269608 -0.0274207 0.50536656
0.22067149 -0.027040243 0.49835506
0.24860229 -0.029744882 0.5482021
0.24549286 -0.028434739 0.5240559
0.2338724 -0.02672299 0.49250826
0.22732708 -0.022353088 0.41197044
0.20929115 -0.020188631 0.37207884
0.21674143 -0.018832095 0.34707814
0.20981064 -0.016034644 0.29552081
0.21418688 -0.015483514 0.28536251
-0.23709947 -0.023229457 0.44403312
-0.2349069 -0.023200367 0.44347721
-0.23394388 -0.023293247 0.44525284
-0.23453583 -0.023738466 0.45376217
-0.23023537 -0.025177184 0.48126382
-0.22908877 -0.02527762 0.48318458
-0.2276796 -0.025350709 0.48458162
-0.22668384 -0.025355209 0.48466703
-0.1233862 -0.02290915 0.43791071
-0.12495282 -0.024306335 0.46461755
-0.1523723 -0.030613197 0.58517474
-0.15015982 -0.030418389 0.58145064
-0.13260412 -0.028514002 0.54504842
-0.13276681 -0.028802052 0.55055392
-0.074558735 -0.016616402 0.31762391
-0.071533807 -0.01638997 0.31329557
-0.05369553 -0.015136695 0.28933904
-0.046559531 -0.015028976 0.2872811
-0.041565977 -0.014781732 0.2825543
-0.04187787 -0.015338381 0.29319432
-0.040624961 -0.015578793 0.29779047
-0.033175711 -0.01428928 0.27314121
-0.031171791 -0.014442739 0.27607501
-0.025422981 -0.014529557 0.2777341
-0.015371181 -0.014567289 0.27845508
-0.011112528 -0.014446924 0.27615392
0.097858541 -0.033653863 0.64329642
0.10501272 -0.034192529 0.65359366
0.10736826 -0.034053527 0.65093583
0.10176703 -0.031461585 0.60139138
0.1050101 -0.03017723 0.57684112
0.11099064 -0.02979691 0.56957066
0.15675355 -0.03360505 0.64236331
0.16154489 -0.031843171 0.60868502
0.18333757 -0.033445392 0.63931173
0.27718034 -0.041074589 0.78514469
0.28029054 -0.041285548 0.78917658
0.25150049 -0.027959162 0.53444189
0.21828525 -0.020775342 0.39712262
0.20911697 -0.019229764 0.36757895
0.20936263 -0.019180316 0.36663327
0.22221929 -0.018489618 0.35343075
0.21653096 -0.017032033 0.32556936
0.21058626 -0.014471603 0.27662659
0.21708997 -0.014671388 0.28044569
0.21876471 -0.01466311 0.28028753
-0.24717669 -0.022333318 0.44338274
-0.23567446 -0.022321034 0.44313806
-0.2412224 -0.023703812 0.47059086
-0.24431156 -0.024729161 0.49094671
-0.23955579 -0.025110612 0.49851957
-0.22761174 -0.024181265 0.48006943
-0.1542034 -0.020668438 0.41032907
-0.13179584 -0.020730508 0.41156182
-0.12952219 -0.02078921 0.41272652
-0.12843867 -0.020899938 0.41492525
-0.13692141 -0.02466451 0.48966312
-0.069124982 -0.01539353 0.30560637
-0.068404742 -0.015378374 0.3053067
-0.057795294 -0.014832674 0.29447302
-0.053576544 -0.014541772 0.28869733
-0.046856675 -0.014562809 0.28911501
-0.04367594 -0.014330178 0.28449678
-0.04299669 -0.014306472 0.28402627
-0.042104531 -0.014848191 0.29478103
-0.035689224 -0.014297378 0.28384531
-0.03497215 -0.014252408 0.28295279
-0.020034743 -0.013957775 0.27710363
0.0060573565 -0.014032853 0.27859297
0.013373597 -0.014214406 0.2821978
0.10258698 -0.035463609 0.70405692
0.10166704 -0.0346375 0.68765694
0.14770983 -0.031312063 0.62163687
0.27235582 -0.036851633 0.73161393
0.23460133 -0.02721232 0.5402447
0.22455125 -0.025543639 0.50711685
0.22374649 -0.025208741 0.50046819
0.23812391 -0.022704024 0.4507415
0.24058387 -0.022754423 0.45174298
0.20885451 -0.018422637 0.36574361
0.21466096 -0.016102189 0.31967568
0.21688241 -0.016114902 0.31992868
0.21012796 -0.014863234 0.29507962
0.21146928 -0.014607372 0.28999993
0.2135174 -0.014452285 0.28692171
0.21385381 -0.014433646 0.28655073
0.21281394 -0.014002541 0.27799216
0.21719457 -0.01417206 0.28135777
-0.24696849 -0.021453194 0.44300959
-0.24807075 -0.021799674 0.45016459
-0.23438662 -0.021515107 0.44428757
-0.23961198 -0.022542739 0.46550861
-0.24782166 -0.024013037 0.49587059
-0.16005744 -0.018806556 0.38835737
-0.13942108 -0.019641416 0.40559575
-0.13708156 -0.019804329 0.40896064
-0.13392553 -0.022844385 0.4717378
-0.12666005 -0.022989724 0.47473857
-0.06092355 -0.01440451 0.29745424
-0.054603342 -0.013927622 0.28760612
-0.049943399 -0.013828769 0.28556484
-0.049351007 -0.013833813 0.28566906
-0.046079069 -0.013952369 0.28811753
-0.040297773 -0.01430464 0.29539198
-0.024922974 -0.013500227 0.27878082
0.0018998628 -0.013568451 0.28018945
0.010236566 -0.013505747 0.27889517
0.090784788 -0.030172231 0.6230585
0.10286485 -0.02907004 0.60029763
0.13546997 -0.028374612 0.58593678
0.13565384 -0.025790475 0.53257519
0.182311 -0.031490088 0.65027189
0.18261479 -0.031303898 0.64642709
0.26729292 -0.035379954 0.73059779
0.27475944 -0.03574184 0.73807055
0.24667551 -0.027508311 0.56804889
0.21865532 -0.017372202 0.35873738
0.21523589 -0.015824271 0.32677242
0.21171969 -0.014184863 0.29291889
0.211896 -0.013989873 0.2888917
0.2115185 -0.013924364 0.28753915
0.21391895 -0.013880752 0.28663796
-0.24709626 -0.020681761 0.44494447
-0.23540962 -0.020657739 0.44442654
-0.23406857 -0.020791629 0.44730896
-0.23983756 -0.021658001 0.46594656
-0.24702938 -0.024327779 0.52338433
-0.16350347 -0.017974071 0.38669214
-0.13434952 -0.019117951 0.41130087
-0.13614181 -0.022459088 0.48318169
-0.14646018 -0.02593172 0.55789059
-0.065760568 -0.014044525 0.3021521
-0.065281466 -0.014080492 0.30292591
-0.053927708 -0.013353306 0.2872811
-0.046965979 -0.013294606 0.28601795
-0.017183999 -0.01296371 0.27889881
-0.012898291 -0.012850947 0.27647388
0.0036819172 -0.01297217 0.27908123
0.010217655 -0.012939552 0.27838016
0.013280218 -0.013025465 0.28022745
0.015246315 -0.013171685 0.28337443
0.019148195 -0.014274396 0.30709678
0.021266211 -0.013148951 0.2828851
0.023231402 -0.013235204 0.28473964
0.083120286 -0.032763585 0.70487052
0.084622204 -0.032761775 0.70483214
0.095021911 -0.032201957 0.69278693
0.10090436 -0.032189019 0.69250935
0.10699429 -0.026692405 0.574256
0.1255805 -0.028695758 0.61735594
0.13468911 -0.027078338 0.58255923
0.13753723 -0.026904769 0.57882518
0.14009373 -0.026453102 0.56910789
0.18280354 -0.02919459 0.62808698
0.18885212 -0.028887739 0.62148577
0.27776223 -0.034881983 0.75044566
0.24324034 -0.026295006 0.56570703
0.20804745 -0.02064351 0.44412071
0.20662357 -0.019867621 0.42742959
0.20656662 -0.019774765 0.42543098
0.21830714 -0.016648207 0.35816661
0.21948758 -0.016506692 0.35512206
0.22094099 -0.01655872 0.35624149
0.21324754 -0.015246496 0.3280113
0.21227778 -0.013374388 0.28773531
0.21246712 -0.013347673 0.28715986
-0.23552561 -0.020128235 0.45193985
-0.25210392 -0.022275928 0.50016183
-0.15227322 -0.016120829 0.36196217
-0.13270782 -0.01833435 0.41166207
-0.13190125 -0.018344551 0.41189119
-0.13155833 -0.021614999 0.48532215
-0.13551223 -0.022441534 0.50388122
-0.064269871 -0.013551237 0.30426687
-0.062320691 -0.013551644 0.30427626
-0.048479389 -0.012979975 0.29144076
-0.031953108 -0.012369692 0.27773774
-0.02474427 -0.012629106 0.28356192
-0.020098533 -0.012380777 0.27798602
0.0042833546 -0.012443662 0.27939826
0.0048797256 -0.012441671 0.27935338
0.005478539 -0.01244563 0.27944243
0.007833167 -0.012391069 0.278218
0.014345651 -0.01236639 0.27766353
0.023665447 -0.012918492 0.29005966
0.088601716 -0.031737581 0.71260536
0.098972291 -0.03213767 0.72158897
0.090002477 -0.027919803 0.62688464
0.12692155 -0.027500099 0.61746019
0.18467689 -0.031242685 0.7014935
0.16164106 -0.025875077 0.58097452
0.1641535 -0.026076989 0.58550715
0.18531361 -0.028567273 0.64142197
0.17430112 -0.025727591 0.57766342
0.18897206 -0.027696943 0.62188041
0.20781451 -0.029625082 0.66517347
0.20730306 -0.019709187 0.44253182
0.21971866 -0.015887791 0.35672975
0.21472263 -0.014709799 0.33028024
0.21026944 -0.013033518 0.2926431
0.21627852 -0.01265322 0.28410444
0.2171618 -0.012460039 0.27976599
-0.23685706 -0.01896931 0.44536176
-0.23570423 -0.019185361 0.4504346
-0.23715802 -0.019543152 0.45883536
-0.23798139 -0.019692494 0.4623403
-0.24069172 -0.020083558 0.47152174
-0.14614981 -0.015182774 0.3564612
-0.13020959 -0.017553031 0.41210979
-0.13028179 -0.018177588 0.4267734
-0.065235138 -0.013022524 0.30574316
-0.060946714 -0.012807967 0.30070546
-0.059895758 -0.012858253 0.30188715
-0.053607218 -0.01230355 0.28886309
-0.052431852 -0.012317484 0.28919029
-0.0041642799 -0.012155158 0.28537807
0.0024930665 -0.011906558 0.27954194
0.0054827016 -0.011911443 0.27965668
0.022005815 -0.012467956 0.29272273
0.025382536 -0.012591193 0.29561636
0.088669129 -0.028885523 0.67817384
0.12673451 -0.026260804 0.61655062
0.14134854 -0.024246663 0.56926298
0.15208565 -0.025220118 0.59211767
0.17942329 -0.029266365 0.68711621
0.26833025 -0.032770731 0.76939201
0.24692008 -0.029434413 0.6910609
0.22867762 -0.02231979 0.52402389
0.20819281 -0.018758487 0.44041237
0.20821054 -0.01867565 0.438467
0.20618093 -0.017251227 0.40502465
0.21648572 -0.012180855 0.28598213
-0.2434281 -0.018457269 0.45406729
-0.13127023 -0.017602617 0.43304273
-0.12791948 -0.017523965 0.43110824
-0.065504864 -0.012115391 0.2980507
-0.063460231 -0.011970009 0.29447484
-0.065393753 -0.012458253 0.30648658
-0.057174131 -0.012104941 0.29779375
-0.050154675 -0.011516215 0.28331074
-0.027032213 -0.011468644 0.2821399
-0.018901993 -0.011294805 0.2778644
0.00069924939 -0.011341335 0.27900848
0.0013000537 -0.011380243 0.27996615
0.012976921 -0.011130737 0.27382925
0.013639344 -0.011194052 0.27538481
0.09073367 -0.025312252 0.62270761
0.10199142 -0.026151253 0.64334726
0.10669751 -0.025630163 0.63052857
0.13537525 -0.022952218 0.56464785
0.17114522 -0.025197973 0.61989653
0.18484786 -0.026597761 0.6543318
0.2460306 -0.028328467 0.69690949
0.25120479 -0.027273033 0.67094481
0.20652418 -0.016422158 0.4040029
0.21919043 -0.013980599 0.34393695
0.21804112 -0.011675352 0.28722608
-0.23973577 -0.017588275 0.45442703
-0.23934552 -0.017631119 0.45553273
-0.13014427 -0.016272703 0.42043564
-0.12885624 -0.016929878 0.4374156
-0.070691869 -0.011983151 0.30960751
-0.06476897 -0.011749027 0.3035582
-0.06329935 -0.011838198 0.30586261
-0.053178966 -0.011352397 0.29331049
-0.046376847 -0.011223414 0.28997821
-0.043100473 -0.011019647 0.28471249
-0.040424991 -0.010954138 0.28302118
-0.039095622 -0.010920795 0.28215942
-0.038460344 -0.011264629 0.29104301
-0.027839499 -0.011000713 0.28422424
-0.017174952 -0.010788871 0.27875078
-0.015432528 -0.010820359 0.27956474
-0.009583462 -0.01096477 0.2832959
-0.0089792199 -0.010966263 0.28333426
-0.0071575339 -0.010958685 0.28313774
-0.0065521151 -0.010958368 0.28312975
-0.0011002682 -0.010903694 0.28171715
0.00010333111 -0.010839134 0.28004903
0.010510728 -0.010473675 0.27060807
0.019810075 -0.011889343 0.30718362
0.020486433 -0.011900811 0.30747971
0.02179653 -0.011221921 0.28993985
0.023595866 -0.011193555 0.28920656
0.092399001 -0.024189025 0.62496895
0.11200812 -0.023537776 0.60814267
0.11326926 -0.023262935 0.60104012
0.15938225 -0.022695089 0.58636963
0.28580281 -0.029377431 0.75901997
0.20526037 -0.016290167 0.42088768
0.22034806 -0.013382147 0.34575313
0.21585371 -0.013065413 0.33756915
0.21288185 -0.011501489 0.29716289
0.21427682 -0.011406732 0.29471406
-0.24903195 -0.018009201 0.48991159
-0.13106854 -0.014945777 0.40657732
-0.13173422 -0.015752813 0.42853057
-0.075921215 -0.011781918 0.32050955
-0.065900452 -0.011022452 0.29985023
-0.056228228 -0.011010961 0.29953608
-0.053270623 -0.010800679 0.29381648
-0.046958379 -0.010650931 0.28974223
-0.011878282 -0.010303636 0.28029478
-0.0095885294 -0.010419386 0.28344357
-0.008979491 -0.010415586 0.28334004
-0.0083719008 -0.010413324 0.28327817
-0.0071552717 -0.010404841 0.28304833
0.0025031101 -0.010317503 0.28067261
0.0031023761 -0.01031515 0.28060892
0.0066335495 -0.01021148 0.27778804
0.0072263009 -0.010210212 0.27775329
0.0078292768 -0.010222315 0.27808228
0.0095854532 -0.010193632 0.27730161
0.01063677 -0.010066798 0.27385169
0.022303322 -0.010604513 0.28847873
0.023598852 -0.010632608 0.28924385
0.024842445 -0.01063564 0.28932709
0.025421804 -0.010619353 0.288883
0.12174685 -0.020100433 0.54680127
0.28244966 -0.028546484 0.77656257
0.29166055 -0.029305227 0.79720259
0.25244233 -0.024232185 0.65919745
0.24395284 -0.020960584 0.57019895
0.21566822 -0.012357024 0.33615509
0.2225457 -0.012460537 0.33897018
-0.24851738 -0.016879436 0.4848223
-0.24828972 -0.016934538 0.48640612
-0.067233987 -0.010862026 0.31198612
-0.065478444 -0.010902788 0.31315693
-0.047650933 -0.0099733062 0.28645989
-0.046124671 -0.010040943 0.28840128
-0.035794728 -0.0099115074 0.28468499
-0.012505235 -0.009780488 0.28092089
-0.0065874034 -0.0099104214 0.28465348
0.0054742866 -0.0097215837 0.27922997
0.021610679 -0.010008369 0.28746676
0.028037565 -0.010339218 0.29697034
0.088921122 -0.027240731 0.78242528
0.084345415 -0.021748733 0.6246807
0.086256951 -0.021894997 0.62888342
0.083450004 -0.020236474 0.58124489
0.095856071 -0.019974029 0.57370716
0.1170261 -0.01884173 0.54118425
0.12135189 -0.018618058 0.53475982
0.14993751 -0.019511981 0.56043589
0.22379464 -0.012144482 0.34882194
0.22320984 -0.011798295 0.3388786
0.21348242 -0.010344286 0.29711476
-0.13357319 -0.014587353 0.44376928
-0.14668782 -0.018671216 0.56800658
-0.077950291 -0.010261584 0.31217468
-0.077237107 -0.010255522 0.3119894
-0.056380056 -0.0099864267 0.30380359
-0.045103844 -0.0093958918 0.28583845
-0.037544388 -0.0093391147 0.28411132
-0.036906306 -0.0093313325 0.28387424
-0.015415789 -0.0091796843 0.27926144
0.0030890752 -0.0091846604 0.279412
0.01595054 -0.0090278545 0.2746425
0.088238522 -0.025521969 0.77641904
0.085896105 -0.020269908 0.61664313
0.09622433 -0.018931037 0.57591164
0.098625377 -0.018236991 0.55479646
0.11147137 -0.019012177 0.57838094
0.11670108 -0.01774006 0.5396812
0.15505683 -0.017512361 0.53275329
0.15624306 -0.017517654 0.53291523
0.21095489 -0.010196957 0.31020722
0.21166278 -0.0091652749 0.27882388
-0.13510551 -0.01378398 0.44569439
-0.13648537 -0.014225717 0.45997652
-0.143949 -0.017238764 0.55740112
-0.073107481 -0.0096319607 0.31144139
-0.066862829 -0.0096916799 0.31337196
-0.065683022 -0.0097152954 0.314136
-0.057094418 -0.009514831 0.30765381
-0.05650067 -0.0095255766 0.30800161
-0.011143201 -0.0090445029 0.29244658
-0.0067109121 -0.008968656 0.28999233
-0.0029807675 -0.0089349281 0.28890291
-0.00050480233 -0.0088288831 0.28547579
0.0036611967 -0.0085824989 0.27750826
0.0096048163 -0.0085935155 0.27786475
0.01339124 -0.0087391241 0.28257239
0.014084247 -0.0084308274 0.27260375
0.018379636 -0.0088143153 0.28500313
0.026679059 -0.008941805 0.28912586
0.02741034 -0.0089789033 0.29032567
0.077970646 -0.02294421 0.74188024
0.093804918 -0.022188794 0.71745396
0.095220335 -0.017185673 0.5556854
0.094276965 -0.016805828 0.54340184
0.096229672 -0.016945193 0.54790765
0.11283377 -0.01894669 0.61262572
0.1149611 -0.016773479 0.54235601
0.11749335 -0.016971795 0.54876924
0.12143911 -0.016707834 0.54023314
0.1259608 -0.016394628 0.53010613
0.12810171 -0.01652463 0.5343101
0.12890004 -0.016480679 0.53288901
0.14085975 -0.017697103 0.57221979
0.15457998 -0.018927801 0.61201441
0.1407899 -0.016539492 0.53478897
0.25999829 -0.02147672 0.69443154
0.25366229 -0.019300658 0.62406939
0.22278924 -0.010393259 0.33605918
0.21416503 -0.0086763063 0.28054053
-0.12549572 -0.011358029 0.39188874
-0.12534615 -0.011420666 0.39405128
-0.14629115 -0.016150553 0.55724621
-0.071747802 -0.0091072749 0.31423187
-0.066300295 -0.0090970732 0.31387937
-0.055434875 -0.008967299 0.30940083
-0.040146489 -0.0081462376 0.28107184
-0.01626162 -0.008219596 0.2836028
-0.012566311 -0.0085942615 0.29652986
-0.0067664683 -0.0084743267 0.29239228
0.0030999333 -0.0081263762 0.28038704
0.008555037 -0.0081853485 0.28242183
0.0098404326 -0.0077703274 0.26810098
0.01611739 -0.0080431318 0.27751479
0.021882307 -0.0082030604 0.28303242
0.024125189 -0.008351271 0.28814575
0.1021684 -0.019465653 0.67162848
0.090376079 -0.016302699 0.56249565
0.098173782 -0.016814558 0.58015728
0.09616027 -0.015868405 0.54751188
0.12171644 -0.017342094 0.59836024
0.12840292 -0.017556923 0.60577112
0.11673266 -0.015342385 0.52936256
0.15981658 -0.0155716 0.53727037
0.21933049 -0.020072248 0.69255799
0.25034964 -0.021327717 0.73587471
0.28242743 -0.020907946 0.72139227
0.25733319 -0.018446004 0.63644743
0.25601232 -0.018159356 0.6265564
0.26136503 -0.018159062 0.62654698
0.21413775 -0.0093616443 0.32300869
0.20923209 -0.0088339504 0.30479962
0.20923115 -0.0086984523 0.30012602
0.21653645 -0.0080407346 0.27743262
-0.14449716 -0.015004432 0.55493075
-0.068608142 -0.0085234139 0.31523514
-0.063993804 -0.0085370997 0.31573969
-0.063672498 -0.0089670271 0.33164072
-0.050277188 -0.0078689083 0.29102924
-0.041152652 -0.0075638914 0.27974498
-0.0093276678 -0.0079582818 0.29433259
-0.0061507341 -0.007917542 0.29282624
-0.0042576576 -0.0078891078 0.2917752
-0.003618127 -0.0078544309 0.29049286
0.019146204 -0.0077698748 0.28736433
0.088395238 -0.021433536 0.79270595
0.095705688 -0.019791933 0.73199195
0.10420707 -0.015122511 0.55929673
0.11278011 -0.0156486 0.57875335
0.11514877 -0.014541772 0.53781813
0.11618768 -0.01438578 0.53204787
0.1589911 -0.016462898 0.60886979
0.21251471 -0.017437689 0.64492184
0.27681196 -0.019328527 0.714854
0.27775809 -0.018673139 0.6906141
0.2632083 -0.01760144 0.65097821
0.21324985 -0.0087255519 0.32271007
0.21503611 -0.0076161902 0.28168133
0.21519481 -0.0074753086 0.27647096
-0.069705695 -0.0076609338 0.30528855
-0.067410335 -0.00762275 0.30376667
-0.045797307 -0.0069087972 0.27531642
-0.044195581 -0.0069344491 0.27633959
0.0085049104 -0.0070455167 0.28076562
0.014854796 -0.0069284323 0.27609745
0.016274106 -0.0070317178 0.28021443
0.019851787 -0.007026108 0.27999038
0.031498071 -0.0083719455 0.33362228
0.096932359 -0.018304897 0.72944993
0.091202371 -0.014057374 0.56018686
0.099358015 -0.014025569 0.55891758
0.098525755 -0.013742833 0.54765177
0.11298234 -0.014549327 0.57979119
0.11208412 -0.013136849 0.52350414
0.11590348 -0.013450281 0.53599274
0.11656147 -0.013264384 0.52858585
0.16052143 -0.015056392 0.59999686
0.17305566 -0.013351971 0.53207684
0.2416791 -0.018169038 0.72403473
0.24561207 -0.016368456 0.65228367
0.20863858 -0.0075797485 0.30205438
0.20923065 -0.0075545036 0.30104822
0.21127556 -0.0075128591 0.29938731
0.21677554 -0.0071058231 0.28316703
-0.069131136 -0.0070090974 0.30277243
-0.047268461 -0.0064947489 0.28055537
-0.043899525 -0.0065288157 0.28202587
-0.0092991665 -0.0067928215 0.29342923
0.024136228 -0.0066735428 0.28827786
0.078977175 -0.017396046 0.7514571
0.083352551 -0.017993908 0.77728117
0.09500128 -0.013688069 0.59128231
0.10751946 -0.013359119 0.57707489
0.10850725 -0.013328943 0.57577157
0.15843047 -0.013387984 0.57832032
0.21074116 -0.015404704 0.66543639
0.24242713 -0.016921487 0.73095626
0.25979069 -0.015617316 0.67462111
0.27456361 -0.015888086 0.68631852
0.21081826 -0.0073380014 0.31698003
0.21121728 -0.0073049301 0.31555185
0.20877028 -0.0070185978 0.30318287
-0.073803291 -0.0064897723 0.30604503
-0.066198863 -0.0064499602 0.30416662
-0.054436222 -0.0061492864 0.2899898
-0.052978635 -0.0061241775 0.28880194
-0.044587281 -0.0059118601 0.27878949
-0.011279739 -0.0062774327 0.29603076
-0.0070885862 -0.0059462436 0.28041241
-0.0065274131 -0.0059812153 0.28206244
0.019990949 -0.0059789531 0.28195384
0.024102388 -0.0061044525 0.28787285
0.094880663 -0.013043019 0.61507887
0.095124424 -0.011626627 0.54828697
0.10646189 -0.012401248 0.58481604
0.10877707 -0.012102566 0.57073063
0.11312041 -0.011093051 0.52312213
0.11663394 -0.011215859 0.52891463
0.27707073 -0.015007305 0.70770967
0.23004508 -0.011016729 0.51952422
0.22252123 -0.010260204 0.48384836
0.21140853 -0.0067188973 0.31684899
0.21096411 -0.0066409465 0.31317323
0.20979907 -0.006501128 0.30658031
0.20940053 -0.0063306591 0.29853824
0.20896925 -0.006298379 0.29701847
-0.15444273 -0.0063025639 0.3272194
-0.14149132 -0.0066818218 0.34690768
-0.1271729 -0.0067882291 0.35243291
-0.12898952 -0.0071830726 0.37293011
-0.12799892 -0.0072625163 0.37705573
-0.074989341 -0.005885168 0.30554771
-0.07263317 -0.005906024 0.30662847
-0.052481342 -0.0055104345 0.28609109
0.033735886 -0.01118842 0.58088022
0.038498618 -0.011129561 0.57782608
0.096161358 -0.01489669 0.77340585
0.097743087 -0.011717494 0.60834765
0.10735903 -0.010729289 0.55704296
0.12264127 -0.010312391 0.53539956
0.12344466 -0.010284001 0.53392524
0.14468645 -0.010500436 0.54516387
0.15236361 -0.010969293 0.56950384
0.1718038 -0.01171383 0.60815823
0.23333068 -0.010248509 0.53208083
0.23568776 -0.010202793 0.52971035
0.22522359 -0.0066507864 0.34529746
-0.15095806 -0.0058012907 0.3350074
-0.12760261 -0.0056546861 0.3265444
-0.12804551 -0.0064909486 0.37483349
-0.072922714 -0.0052833231 0.30509856
0.021805216 -0.0048839557 0.28203601
0.022565451 -0.0049182712 0.28401685
0.023127709 -0.0049087703 0.2834689
0.074960202 -0.012350962 0.71323687
0.095946826 -0.01270769 0.733836
0.11437025 -0.010391426 0.60007685
0.16114585 -0.010514437 0.60718155
0.16082735 -0.0092958631 0.53681141
0.167826 -0.0094971424 0.5484339
0.19823399 -0.010839315 0.62594384
0.24878693 -0.010222858 0.59034526
0.22107202 -0.0084022349 0.48520705
0.21032676 -0.0052892724 0.3054435
0.21594654 -0.0047911885 0.27667692
-0.15572985 -0.0050491993 0.32845899
-0.15101914 -0.0051519875 0.33514276
-0.14125851 -0.0052963072 0.3445316
-0.14021263 -0.0052846349 0.34377265
-0.13148756 -0.0051166541 0.33284596
-0.12854987 -0.0051129442 0.33260709
-0.13020027 -0.0052660182 0.34256127
-0.12231851 -0.0057190647 0.37203467
-0.074985445 -0.0046967245 0.30553141
-0.071838282 -0.0047045061 0.30603418
-0.070847228 -0.0047698799 0.31028828
-0.072306983 -0.0049610469 0.32272315
-0.066314861 -0.0046384311 0.30173588
-0.04976017 -0.0043737469 0.28451705
0.033758961 -0.008935675 0.58127636
0.052269705 -0.0091308681 0.59397399
0.096133396 -0.011684853 0.76011431
0.09640982 -0.011335296 0.73737764
0.088873528 -0.0088565936 0.57613623
0.090356715 -0.0088813631 0.57774663
0.11681952 -0.0098646823 0.64171278
0.10422607 -0.0085993735 0.55939859
0.10959295 -0.0083700232 0.54448128
0.11260756 -0.0080851391 0.52594936
0.11869062 -0.0081167398 0.5280062
0.15520675 -0.0088473642 0.57553363
0.24676938 -0.0090937251 0.5915581
0.24896744 -0.0091279279 0.59378487
0.22309054 -0.0075623984 0.49194548
0.21165341 -0.0049396702 0.32133368
0.21029143 -0.0046513025 0.30257446
0.21165363 -0.0046527954 0.30267292
0.20810926 -0.0045333127 0.29490009
0.21393122 -0.0042601009 0.2771304
-0.15816019 -0.0044000773 0.32767686
-0.15291946 -0.0044721016 0.33304065
-0.13429669 -0.0045161215 0.33631793
-0.13052148 -0.0044851308 0.33401462
-0.1262603 -0.0049631051 0.36960721
-0.12504539 -0.0050094095 0.37305352
-0.073258862 -0.0040793167 0.30378765
-0.061982285 -0.0041502551 0.30907398
-0.053609844 -0.0038348553 0.28558764
-0.050640024 -0.0038411212 0.28605163
0.023237104 -0.0038244273 0.28481057
0.063653588 -0.0081328461 0.60565549
0.089895077 -0.0089402217 0.66578275
0.08856453 -0.0077095455 0.57413369
0.10654794 -0.0081462823 0.60665691
0.1154042 -0.0070274654 0.5233382
0.15135781 -0.0077834474 0.57963717
0.2368049 -0.0072512287 0.5400033
0.21744999 -0.0062618018 0.46632007
0.20910208 -0.00400304 0.2981126
-0.1492701 -0.0038405783 0.33443373
-0.14203304 -0.0038772011 0.33762091
-0.13811649 -0.003929975 0.34221995
-0.13139781 -0.0039259261 0.34186706
-0.12599708 -0.0039398377 0.34307811
-0.073015824 -0.0035081226 0.30548728
-0.071489468 -0.0035295445 0.3073476
-0.069463842 -0.0034613207 0.30140832
-0.073399104 -0.0037264798 0.32450166
-0.071711242 -0.0037109621 0.32314768
-0.068352528 -0.003678886 0.32035428
-0.03237313 -0.003115677 0.27130839
-0.014220333 -0.0032066121 0.27922815
0.052726462 -0.0068807025 0.59916496
0.095702522 -0.0070272619 0.61192769
0.093852058 -0.0066199997 0.57646143
0.10189216 -0.0068285395 0.59462112
0.1077196 -0.0068760202 0.59875453
0.10636815 -0.0064089941 0.55809146
0.11271569 -0.0060456842 0.52645391
0.16770814 -0.0065214415 0.56788117
0.23678984 -0.0062312866 0.54261333
0.23649856 -0.0061933063 0.53930479
0.217228 -0.0055533005 0.48357582
0.2173772 -0.0054028956 0.47047719
-0.16663598 -0.0032220169 0.33775881
-0.16495644 -0.0032174247 0.33727634
-0.15697597 -0.0031301996 0.32812926
-0.15006047 -0.0031919088 0.33460242
-0.12762894 -0.0032770075 0.34352326
-0.12360509 -0.0035403119 0.37112263
-0.12191948 -0.0035374165 0.37082076
-0.074360669 -0.0029157107 0.30564797
-0.014195269 -0.0026589662 0.27873522
0.018479891 -0.0026459368 0.27736387
0.096233383 -0.0071380348 0.74825996
0.088082165 -0.0062231654 0.65235531
0.097190417 -0.0055490704 0.58169371
0.099310875 -0.0055984966 0.58687669
0.10972135 -0.0058878823 0.61721498
0.15831275 -0.0050770906 0.53221512
0.21979652 -0.0044555883 0.46707073
0.21298106 -0.0026614093 0.27898929
-0.15579037 -0.0024956679 0.32858643
-0.15016833 -0.0025553638 0.33644611
-0.14080854 -0.0025682575 0.3381457
-0.13990524 -0.0025916926 0.34123081
-0.072579242 -0.0023271667 0.30640113
-0.029492164 -0.0020618718 0.27147743
-0.025710354 -0.0020845828 0.2744655
-0.018243821 -0.0021030414 0.276889
-0.0097722998 -0.0020636814 0.2717123
0.01594303 -0.0020849674 0.27451256
0.023174217 -0.002157331 0.28403786
0.024709707 -0.0021857424 0.28778058
0.084320806 -0.0045281104 0.59618574
0.097310759 -0.0047257696 0.62221104
0.092832319 -0.0043883147 0.57778323
0.099640772 -0.0044722371 0.5888266
0.1007985 -0.0044677355 0.58823866
0.11293068 -0.0045513641 0.59924406
0.11172816 -0.0042159455 0.55509001
0.1685015 -0.0045302594 0.59646857
0.19161631 -0.0047229645 0.62183464
0.21090323 -0.0034351258 0.45228043
0.20949812 -0.0022479265 0.29597178
-0.13958865 -0.0019339521 0.34224275
-0.12952228 -0.0019365534 0.34270459
-0.12574591 -0.0019236144 0.34041283
-0.068527073 -0.001695915 0.30012637
-0.031320546 -0.0015383622 0.27223966
-0.016637122 -0.0015806402 0.27972436
-0.015384301 -0.0015748041 0.27869141
-0.0091956537 -0.0015360775 0.27183247
0.022490621 -0.0015995962 0.2830762
0.092924252 -0.0034518652 0.61085981
0.096753925 -0.0034958622 0.61865091
0.10558566 -0.0035258799 0.62395793
0.10982776 -0.0031164463 0.55150437
0.11144866 -0.0029711085 0.52578503
0.11361201 -0.0029689143 0.52539563
0.16916355 -0.0034095645 0.6033771
0.16282141 -0.0032324675 0.57203412
0.1940161 -0.0034853437 0.61678827
0.1980194 -0.003533277 0.62526631
0.23377921 -0.0030571576 0.54101396
0.23425207 -0.0030482677 0.53944033
0.22105251 -0.0026787594 0.47404584
0.21567284 -0.0015614579 0.27632621
-0.15948306 -0.0012247043 0.33041742
-0.15394516 -0.0012199766 0.3291463
-0.15138659 -0.0012335038 0.33280107
-0.14729117 -0.0012911411 0.34834889
-0.13024344 -0.0012701266 0.34267491
-0.1295079 -0.0012700814 0.34266585
-0.12614293 -0.0012584091 0.33952284
-0.12460546 -0.0012575721 0.33928865
-0.07714843 -0.001165099 0.31434479
-0.026185025 -0.0010129525 0.27329648
-0.024369311 -0.0010611118 0.28627747
-0.016765246 -0.0010447571 0.28187931
-0.012939642 -0.0010280404 0.27736276
-0.010335644 -0.0010054198 0.27125373
0.023146711 -0.0010514981 0.28370199
0.023730956 -0.0010505932 0.28343776
0.025016081 -0.001053647 0.28427237
0.09973985 -0.0029230849 0.78863043
0.09149155 -0.0025519934 0.68850511
0.095035844 -0.0021355471 0.57616848
0.11182643 -0.0020376225 0.54974049
0.19080387 -0.0025419046 0.68579262
0.15824707 -0.0020302255 0.54773682
0.26590708 -0.0025452296 0.68669277
0.21152642 -0.0016660783 0.44949648
0.20844105 -0.0010784619 0.2909641
0.20970948 -0.0010785749 0.29099849
-0.16339444 -0.00058361265 0.33118832
-0.15547912 -0.00057524297 0.32645896
-0.15501277 -0.00057614781 0.32694685
-0.15437187 -0.00057632878 0.32706955
-0.15410315 -0.00057798007 0.32798523
-0.15128841 -0.00059732073 0.33895606
-0.14379275 -0.00060231989 0.34180337
-0.13101462 -0.0006006686 0.34087032
-0.12657762 -0.00059695879 0.33874506
-0.034738433 -0.0004787207 0.27166671
-0.023238007 -0.00048105064 0.2729874
-0.020153094 -0.00049113942 0.27873918
-0.010917538 -0.0004780647 0.27130657
-0.0091862436 -0.00047853973 0.27155343
-0.0080356672 -0.00047915051 0.27190125
0.0043375539 -0.00049855903 0.28294012
0.015891366 -0.00048215906 0.27362403
0.11155226 -0.0010087225 0.57245213
0.26106596 -0.0012012919 0.6817162
0.23281683 -0.00086786365 0.49250212
0.20982715 -0.00051308144 0.29116136
0.21510641 -0.00048562 0.27560052
-0.16195133 6.0035192e-05 0.32969138
-0.16168115 6.0487604e-05 0.33203053
-0.15181167 6.0261398e-05 0.3306284
-0.12688889 6.1482911e-05 0.33764625
-0.072193697 5.6053959e-05 0.30754811
-0.069275364 5.47872e-05 0.30058965
-0.068622984 5.4741962e-05 0.30054659
-0.067879401 5.5194374e-05 0.30296174
-0.048793364 5.0263072e-05 0.27562043
-0.048381668 5.0398798e-05 0.27663457
-0.03421662 4.9561833e-05 0.27213433
-0.025718136 4.9991624e-05 0.27454838
-0.021965733 4.9539212e-05 0.27168337
-0.0080315052 4.949397e-05 0.27176225
0.0043358346 5.1529831e-05 0.28282392
0.017729066 5.012735e-05 0.27491358
0.025027934 5.1846517e-05 0.28440809
0.027590852 5.2095344e-05 0.28576824
0.086409055 0.00011129357 0.61095053
0.097292297 0.00010609083 0.58230299
-0.1584426 0.00070119475 0.32972142
-0.1416046 0.00071947224 0.33832088
-0.13675565 0.00070198649 0.33010724
-0.13261832 0.00071779831 0.3375344
-0.13087536 0.00072008302 0.33862457
-0.077294655 0.00066396117 0.31222135
-0.068762779 0.00064039044 0.30115932
-0.067393236 0.0006585322 0.30965418
-0.059680682 0.00060080434 0.28254128
-0.047835153 0.00058883801 0.27689442
-0.0097836098 0.00057847775 0.27202502
0.00010468835 0.0006035188 0.28379318
0.0081370985 0.00057121651 0.26862141
0.0092960894 0.00057191774 0.26893196
0.085032634 0.0012980857 0.61044455
0.19263235 0.0013201861 0.62082541
0.18551806 0.0012541565 0.58977216
0.26372388 0.0014562267 0.68483478
0.26495349 0.0014550277 0.68423015
-0.14710306 0.0014091531 0.34615451
-0.13116074 0.0013739101 0.33749712
-0.12747177 0.0013729826 0.33727923
-0.12608621 0.0013736613 0.33742872
-0.07568904 0.0012664846 0.31110841
-0.031914111 0.0011086831 0.27233991
-0.023986479 0.0011189529 0.27487811
0.00010477882 0.0011549649 0.28371644
0.00070911198 0.001151617 0.28289342
0.013400651 0.0011014218 0.27056608
0.025041416 0.0011584485 0.28456011
0.23572128 0.0021361806 0.52474433
0.23660661 0.0021339639 0.52422059
0.2107802 0.0018657508 0.45831889
-0.16020402 0.0019789445 0.32899755
-0.14950219 0.0020642243 0.34317037
-0.12927563 0.0020344555 0.33822677
-0.070977338 0.0018187903 0.30236635
-0.054173097 0.0016602649 0.27601784
-0.050168429 0.0016644271 0.27670622
-0.02597031 0.0016676844 0.27724043
-0.02480408 0.001668906 0.27745181
-0.023924589 0.0016491808 0.27416909
-0.016720729 0.0016323962 0.27137825
-0.010948393 0.0016365584 0.27207172
0.0041844575 0.001641829 0.27294794
0.026339659 0.0017170201 0.28544721
0.23609248 0.0031614162 0.52557039
0.23724099 0.0031616876 0.52562636
-0.14016485 0.0026791666 0.33659953
-0.076271564 0.0024736128 0.31077185
-0.053904817 0.0022101728 0.27767438
-0.051831044 0.0021976861 0.27611193
-0.017972916 0.0022439228 0.28192237
-0.016718466 0.0021597513 0.27134168
-0.015548526 0.0021583715 0.27116653
-0.0097773662 0.0021637778 0.27185056
0.015671674 0.0021478303 0.26984221
0.021373432 0.0023994171 0.30145285
0.023763169 0.0023182768 0.2912569
0.093247369 0.0046816589 0.58819067
0.099204831 0.0046080514 0.57893795
0.10016648 0.004595384 0.57734835
-0.16194138 0.0032508355 0.32824293
-0.052845716 0.0027567102 0.27834794
-0.032167371 0.002718617 0.27449954
-0.027949255 0.0027078269 0.27341375
-0.023801986 0.0027014026 0.27276444
0.005923985 0.0026983714 0.27245826
0.008888104 0.0027144321 0.27407679
0.010101566 0.0027257425 0.2752187
0.010557507 0.0026919697 0.27181038
0.011132072 0.0026904542 0.27165657
0.011764545 0.0027023528 0.27285817
0.023717113 0.0027356504 0.2762216
0.10027723 0.0056546181 0.57095325
0.11017051 0.0059241205 0.59816551
0.19355364 0.0061779241 0.62379467
0.23663448 0.0052170898 0.52677709
0.23755229 0.0052124979 0.52631617
-0.068429261 0.0036535056 0.30835739
-0.056759812 0.0034264396 0.28919718
-0.054908086 0.0033884821 0.28599119
-0.052263916 0.0032987234 0.2784178
-0.050432548 0.0032573729 0.27492228
-0.049182981 0.0032524641 0.27450714
-0.046832696 0.0032934302 0.27796972
-0.032865986 0.0032634805 0.27543876
-0.019071376 0.0033216607 0.28035447
-0.013860393 0.0032246183 0.27215821
0.012444703 0.0032582777 0.27500081
0.18790467 0.0074843797 0.63169724
-0.075489432 0.0042796452 0.31028718
-0.061267745 0.0041693468 0.30228928
-0.032144029 0.0037832803 0.2743012
-0.022466915 0.0037339898 0.27072713
-0.021400126 0.0037498244 0.27187628
-0.017325332 0.0038783322 0.28118983
-0.0079901544 0.0037289001 0.27035797
0.0048066154 0.0037952466 0.27516764
0.01071739 0.00380572 0.27592662
0.0219879 0.0038170302 0.27674857
0.093658425 0.0081483638 0.59078395
0.12002333 0.0088848686 0.64418584
0.18514998 0.0087101022 0.63151157
0.21400958 0.0044238744 0.32074735
-0.16117182 0.0051633203 0.32810467
-0.076488636 0.0048621264 0.30896616
-0.05363192 0.0044454769 0.28248879
-0.049025726 0.0043580481 0.27693316
-0.027828733 0.0042840787 0.27223495
-0.026845729 0.0043131234 0.27407897
-0.021919586 0.00426648 0.27111405
-0.019564958 0.0042584497 0.27060518
-0.017823439 0.0042569791 0.27050781
0.0047953958 0.0043201358 0.27452597
0.0094909891 0.0043208599 0.27456939
0.010712232 0.0043401327 0.27579415
0.014869726 0.0043492713 0.27637652
0.018928684 0.0043318309 0.27526972
0.022930458 0.0050894641 0.32341188
0.023077853 0.0043376898 0.27563635
0.027808735 0.0044344156 0.28178701
0.11760727 0.010048633 0.63854301
0.12914623 0.010429362 0.66273928
0.23700432 0.0083424486 0.53012276
0.23778586 0.0083300974 0.52934009
0.20867413 0.0048748623 0.30977401
-0.16100733 0.0057953638 0.32776952
-0.056665801 0.0050499006 0.28560755
-0.051935732 0.0048918049 0.27666968
-0.051353659 0.0048927548 0.27671888
-0.044839457 0.005312142 0.30044127
-0.027261134 0.0048159352 0.27237573
-0.01381117 0.0047950563 0.27119547
-0.012621687 0.004783588 0.2705451
-0.01145799 0.0047805565 0.27037752
0.0071198931 0.0048386012 0.27365878
0.011316566 0.0048827566 0.2761561
0.011933295 0.0048936596 0.27677247
0.027703051 0.0049633994 0.28071606
0.086733527 0.012333974 0.69758052
0.090505928 0.012652858 0.71561855
0.098721474 0.010315036 0.58339369
0.23583461 0.0093717109 0.53004026
0.21071103 0.0055482336 0.31379321
-0.16322532 0.0064372248 0.32800335
-0.075959221 0.0060740956 0.30949929
-0.075288475 0.0061271861 0.31220397
-0.067102782 0.0056617213 0.28848779
-0.052067205 0.0054435227 0.27737001
-0.046328075 0.0055369912 0.2821323
-0.042986378 0.0058192965 0.2965183
-0.036783881 0.0055527124 0.28293288
-0.012053908 0.005314223 0.27078286
-0.0098035159 0.0053494656 0.27257732
-0.0092217131 0.0053498731 0.27259976
-0.00862299 0.0053400104 0.27209342
0.017322166 0.0054521635 0.2778112
0.020563614 0.0055254544 0.28154308
0.18616669 0.014224608 0.72480583
0.24918839 0.014841088 0.75621593
0.2635783 0.013285263 0.67694235
0.24162215 0.010076637 0.51345009
0.20915288 0.0062520974 0.31857106
-0.16523376 0.0070709423 0.32781512
-0.067667127 0.0062178271 0.28826484
-0.066428326 0.0062754191 0.29093516
-0.066075899 0.0063611967 0.29491314
-0.063578941 0.0063011162 0.29212844
-0.061185949 0.0063119289 0.2926279
-0.060805742 0.0063374676 0.29381359
-0.056626804 0.0061562536 0.285411
-0.052733157 0.0059911232 0.27775511
-0.052017711 0.0061164415 0.28356373
-0.050569177 0.0061614565 0.28565133
-0.050033882 0.0061707534 0.28608203
-0.042250749 0.0063804695 0.29580456
-0.029681724 0.0058933566 0.2732223
-0.028520742 0.0058948044 0.27328923
-0.014376234 0.0058436817 0.27091786
-0.0098340996 0.0058977902 0.27342677
0.011920356 0.0059633902 0.27647096
0.012539709 0.0059770076 0.27710035
0.021691389 0.0060517238 0.28056368
0.10909213 0.01292598 0.59926432
0.10460492 0.011706998 0.54275358
0.24485558 0.013490274 0.62542391
-0.16599943 0.0077112876 0.32794398
-0.077102199 0.0072606839 0.30877867
-0.076065719 0.0072877835 0.30993289
-0.057935271 0.0067214533 0.28584713
-0.052269071 0.0065473649 0.2784453
-0.048624706 0.0067013209 0.28499007
-0.034727395 0.0066068117 0.28097266
-0.028527709 0.0064277239 0.27335548
-0.014940846 0.0063642734 0.2706562
-0.013217695 0.0063701998 0.27090991
0.0065283179 0.0064283349 0.27338117
0.023005195 0.006460954 0.27476844
0.027411969 0.0066760308 0.28391623
0.02807973 0.0066905534 0.28453332
0.21380843 0.0072560697 0.30858397
-0.075556301 0.0079064583 0.31056228
-0.066197053 0.0073809805 0.28992212
