# .PCD v0.7 - Point Cloud Data file format
VERSION 0.7
FIELDS x y z
SIZE 4 4 4
TYPE F F F
COUNT 1 1 1
WIDTH 1326
HEIGHT 1
VIEWPOINT 0 0 0 1 0 0 0
POINTS 1326
DATA ascii
-0.14814824 -0.034641325 0.33675796
-0.14618272 -0.034517139 0.33555055
-0.097704232 -0.037076682 0.36043257
-0.085417688 -0.033199519 0.32274163
-0.083453 -0.034978181 0.34003234
-0.080400407 -0.035232872 0.34250861
-0.076145351 -0.033674866 0.32736242
-0.070902169 -0.031646878 0.30764788
-0.053012311 -0.024109006 0.23437005
-0.046910822 -0.022616476 0.21986073
-0.040697455 -0.023937017 0.23269802
0.01446116 -0.021633297 0.21030283
0.027701259 -0.024164647 0.23491091
0.2147975 -0.029438168 0.28617638
0.21746153 -0.029467613 0.28646284
0.21784663 -0.029272527 0.28456646
0.22185034 -0.029644996 0.28818697
-0.17809612 -0.031874895 0.31583405
-0.13665563 -0.028958291 0.28693455
-0.090617359 -0.029749721 0.29477668
-0.086493671 -0.029848605 0.295757
-0.083747208 -0.032195002 0.31900615
-0.048688471 -0.022142559 0.2194007
-0.044291079 -0.022774905 0.22566676
-0.043198764 -0.022963554 0.22753549
-0.041792452 -0.022992402 0.22782171
0.0076656938 -0.021078378 0.20885634
0.0094072819 -0.020980388 0.20788556
0.011969566 -0.021594971 0.21397507
0.013411999 -0.021708816 0.21510285
0.014105737 -0.021366924 0.21171564
0.015328705 -0.021180838 0.20987165
0.016238868 -0.021197885 0.21004027
0.020047724 -0.022446632 0.22241384
0.020645499 -0.022580564 0.22374088
0.021634281 -0.02261433 0.2240755
0.026920676 -0.023465127 0.2325055
-0.14530474 -0.030334026 0.30647087
-0.13584107 -0.02969709 0.30003583
-0.090259135 -0.029061228 0.29361176
-0.089527309 -0.029027373 0.29327011
-0.087605178 -0.030089587 0.30400157
-0.094116867 -0.033314615 0.33658397
-0.084733188 -0.034777969 0.35136884
-0.058466613 -0.025344968 0.25606507
-0.041361034 -0.022316605 0.22546941
0.0099249482 -0.020729095 0.20943052
0.014438689 -0.020783126 0.20997649
0.020582795 -0.022078246 0.22306126
0.021583736 -0.022126853 0.22355229
0.19308001 -0.026917845 0.27195615
0.21833366 -0.028873861 0.2917183
0.21751815 -0.02868405 0.28980118
0.21714902 -0.028312951 0.28605109
-0.19839901 -0.037246346 0.38384742
-0.078787029 -0.030356914 0.31284761
-0.087847531 -0.034432411 0.35484803
-0.048630059 -0.022568017 0.23257786
-0.040577471 -0.022241205 0.22920966
0.0085892677 -0.020339221 0.20960873
0.009893775 -0.020258158 0.20877343
0.018448472 -0.0208489 0.21486163
0.027803719 -0.022878647 0.23577946
0.2156443 -0.034818918 0.35883117
0.22068131 -0.028611034 0.294855
0.21750981 -0.027881384 0.28733522
0.21729231 -0.027775079 0.28623968
0.22103512 -0.027631104 0.2847563
-0.18729097 -0.033758432 0.35501599
-0.19089693 -0.034689486 0.36480713
-0.13962048 -0.027876556 0.29316002
-0.13746768 -0.028468847 0.29938847
-0.14774269 -0.030884236 0.32478988
-0.098298967 -0.033174366 0.3488732
-0.081622541 -0.030559927 0.32137948
-0.045850575 -0.021286875 0.2238608
-0.040274978 -0.020876914 0.21954936
-0.035425365 -0.020784825 0.21858054
0.0095334649 -0.020032942 0.21067381
0.012100875 -0.019812942 0.20836008
0.014915824 -0.020004749 0.21037734
0.016296804 -0.020044059 0.21079093
0.21704566 -0.031642079 0.33275986
0.19302607 -0.026009649 0.27352703
0.22007591 -0.028040886 0.29488832
0.2192108 -0.027771622 0.29205632
0.21797562 -0.02700004 0.28394228
0.21800101 -0.026853651 0.28240269
-0.18254346 -0.032626539 0.35027456
-0.14106125 -0.026290506 0.28225172
-0.083351433 -0.030313998 0.32544756
-0.088550389 -0.033607095 0.36080176
-0.048002064 -0.020747572 0.22274345
-0.038878977 -0.020456225 0.219616
-0.034012079 -0.020636171 0.22154802
0.0096227527 -0.01980707 0.21264613
0.012815952 -0.01982522 0.21284121
0.01447773 -0.019611269 0.21054429
0.016713619 -0.019594699 0.21036655
0.21426612 -0.033811182 0.362993
0.21664214 -0.030836433 0.33105624
0.21707249 -0.030697137 0.32956117
0.21656764 -0.03042832 0.32667458
0.19272286 -0.025592834 0.27476168
0.19353098 -0.02562204 0.27507561
-0.1819194 -0.031196505 0.34206229
-0.18369824 -0.032413393 0.35540527
-0.13691574 -0.02530995 0.27751768
-0.15097934 -0.028031141 0.30735469
-0.15883273 -0.029618114 0.32475549
-0.089887202 -0.026667446 0.29240233
-0.083748758 -0.029822707 0.32699883
-0.079514682 -0.031176955 0.34184784
-0.044100821 -0.020271897 0.22227675
-0.044142187 -0.020511925 0.22490823
-0.039580166 -0.019677788 0.21576226
-0.034543216 -0.019698203 0.21598601
-0.0026198626 -0.019182533 0.21033186
0.0045592785 -0.019125164 0.20970315
0.0054967999 -0.019269079 0.21128052
0.0059534907 -0.01928553 0.21146154
0.008970499 -0.019965023 0.21891165
0.0089675188 -0.01896888 0.20798934
0.016042709 -0.019462675 0.21340358
0.016448021 -0.019402683 0.21274596
0.03003341 -0.022029936 0.24155307
0.22441077 -0.028066963 0.30774766
0.21790612 -0.02685979 0.29451138
-0.15936452 -0.02883175 0.32301956
-0.084042728 -0.030300826 0.33947903
-0.08314532 -0.031329662 0.35100555
-0.050449431 -0.020291299 0.22733623
-0.043870986 -0.019526035 0.2187621
-0.040498555 -0.019256383 0.21574122
-0.036335111 -0.01877299 0.2103256
-0.035012484 -0.019540101 0.21891981
-0.033966482 -0.019748122 0.22125036
-0.034195185 -0.020450503 0.22911954
-0.0074210763 -0.018416613 0.20633268
-0.0057714581 -0.018789083 0.21050555
0.0049943328 -0.018668145 0.20915097
0.016040504 -0.019045025 0.21337354
0.016666174 -0.019240975 0.21556848
0.023315668 -0.019801319 0.22184646
0.023683667 -0.019712955 0.22085655
0.024037421 -0.019616395 0.21977413
0.026179433 -0.020560831 0.2303561
0.028978705 -0.021934301 0.24574363
0.2604003 -0.046637088 0.52250361
0.21056473 -0.033412725 0.37434345
0.21479231 -0.032479197 0.36388451
0.21272928 -0.029206157 0.3272143
0.21485966 -0.025696993 0.28789884
-0.1809482 -0.030440956 0.34864318
-0.18113106 -0.030597717 0.35043865
-0.15416294 -0.026591927 0.30455977
-0.13754922 -0.024030566 0.27522469
-0.14653319 -0.026390165 0.30224907
-0.1386382 -0.025881082 0.29641861
-0.10362202 -0.032355934 0.37057549
-0.086653411 -0.030827731 0.35307252
-0.045911252 -0.019369632 0.22184235
0.0086161494 -0.018358678 0.21026343
0.012868702 -0.017423242 0.19955021
0.024655998 -0.019682884 0.22542971
0.22555184 -0.037735641 0.43218994
0.19855779 -0.024641424 0.2822206
0.21232641 -0.024840802 0.28450435
0.21765673 -0.024755448 0.28352678
-0.14599794 -0.025153786 0.29465026
-0.18233222 -0.031825572 0.37280321
-0.085880935 -0.030402035 0.35612792
-0.03477782 -0.018815041 0.22039866
-0.0065657496 -0.017686158 0.20717514
-0.0044416785 -0.018051893 0.21145934
0.0082187057 -0.018063992 0.21160102
0.015597284 -0.018230349 0.21354961
0.023204207 -0.018848062 0.22078568
0.029910982 -0.021268129 0.24913394
0.23745751 -0.042497844 0.49781752
0.23661137 -0.041600794 0.48730946
0.21474469 -0.036471814 0.42722929
0.23995811 -0.04041034 0.47336507
0.25220644 -0.042294711 0.49543855
0.22948486 -0.03800565 0.44519597
0.23261559 -0.038207233 0.44755805
0.21023983 -0.03202942 0.37519139
0.21058208 -0.031838685 0.37295705
0.21563005 -0.028221875 0.33058947
0.21191365 -0.024955124 0.29232323
0.22184128 -0.025819689 0.30245095
0.21705788 -0.02427277 0.28433001
0.21990603 -0.024118572 0.28252375
0.22188514 -0.024268985 0.28428584
-0.14071435 -0.023289412 0.2791698
-0.14413446 -0.024267107 0.29088938
-0.18063396 -0.030946225 0.37095201
-0.1451425 -0.025086045 0.30070585
-0.14171833 -0.024824023 0.2975648
-0.077761471 -0.02620399 0.31410664
-0.076202214 -0.027330279 0.32760739
-0.039824784 -0.017902404 0.21459514
-0.03622365 -0.018403083 0.22059691
-0.034647405 -0.01831755 0.21957153
-0.049879849 -0.034873217 0.41802394
-0.0074241757 -0.017220348 0.20641935
0.016004384 -0.017760366 0.21289325
0.01778996 -0.017726034 0.21248114
0.021870375 -0.018096119 0.21691751
0.023226738 -0.0184367 0.22100019
0.029395223 -0.021179438 0.2538771
0.22331059 -0.035551101 0.4261502
0.21578836 -0.030278176 0.36294347
0.21431226 -0.025106937 0.30095601
0.21258092 -0.024681836 0.29586077
0.21450013 -0.023506254 0.28176838
-0.14189082 -0.024384409 0.29927015
-0.099990427 -0.030055135 0.36886686
-0.096656024 -0.029283732 0.35939914
-0.097479999 -0.029769927 0.3653667
-0.083360016 -0.028934747 0.35511667
-0.040045857 -0.017582208 0.21578676
-0.035062075 -0.016956329 0.20810491
-0.0057483315 -0.017083138 0.20966214
0.01040554 -0.017118603 0.21009731
0.022362232 -0.017696679 0.21719164
0.032387555 -0.020518929 0.25182921
0.099313736 -0.035998255 0.44180703
0.1167596 -0.041923255 0.51452422
0.23148137 -0.039364755 0.48312443
0.243756 -0.038690597 0.47485083
0.24254847 -0.037713856 0.46286219
0.24148619 -0.037244827 0.45710635
0.21033263 -0.030467749 0.37393075
0.21812356 -0.023023009 0.28256142
0.2199868 -0.023028404 0.28262752
0.22194982 -0.023170263 0.28436863
-0.15426952 -0.025087446 0.31542528
-0.081700504 -0.025371879 0.31900162
-0.077759564 -0.024981946 0.31409878
-0.087148964 -0.029000014 0.364618
-0.044303477 -0.017204076 0.21630758
-0.034835577 -0.016656131 0.20941806
-0.033823013 -0.017282248 0.21729058
-0.0053103566 -0.016707331 0.21006161
0.0058146119 -0.016426474 0.20653093
0.007147789 -0.016446888 0.20678711
0.009016633 -0.016633123 0.20912856
0.010430455 -0.016750216 0.21060109
0.017198801 -0.01676622 0.21080208
0.018409133 -0.017052621 0.21440309
0.019000769 -0.016765893 0.21079862
0.022764385 -0.017227441 0.21660143
0.092310607 -0.032974929 0.41459477
0.1183933 -0.040728271 0.51207709
0.12029362 -0.040630698 0.51085174
0.12356067 -0.040990144 0.51537019
0.21787304 -0.026654363 0.33512634
0.21266073 -0.022470713 0.282525
0.21243989 -0.022257775 0.27984768
0.21696246 -0.022604316 0.28420496
0.21769571 -0.022491813 0.28279018
-0.14083272 -0.021054327 0.27135032
-0.14365357 -0.022495061 0.28991842
-0.14149243 -0.022447139 0.28930068
-0.082006395 -0.022930682 0.29553294
-0.078524888 -0.023399025 0.30156857
-0.047841251 -0.016727239 0.21558243
-0.042913258 -0.01660338 0.21398598
-0.033812761 -0.016854614 0.21722424
-0.032167435 -0.016723394 0.2155326
-0.026265383 -0.016208321 0.20889419
-0.0043959022 -0.016237974 0.2092768
0.0053646564 -0.015999407 0.20620221
0.0067098141 -0.016054273 0.20690942
0.0086306334 -0.016341865 0.21061569
0.016154885 -0.016674012 0.21489626
0.019531965 -0.016423911 0.21167296
0.023193777 -0.016781956 0.21628761
0.056240141 -0.035096616 0.4523291
0.096414387 -0.03359893 0.43302619
0.10919201 -0.037689924 0.48575136
0.12070692 -0.038380176 0.49464768
0.23001271 -0.03935492 0.50720984
0.2391178 -0.036755174 0.4737047
0.20702273 -0.029568225 0.38107866
0.20919466 -0.02930209 0.37764782
0.21581978 -0.022059113 0.28430009
0.21740448 -0.021912605 0.28241193
-0.14067763 -0.020504117 0.27105123
-0.14505738 -0.02177003 0.28778619
-0.078040183 -0.021274805 0.28123933
-0.077688634 -0.021510333 0.28435296
-0.075419724 -0.021732181 0.28728539
-0.045629203 -0.016508043 0.21822554
-0.043535173 -0.016248763 0.21479821
-0.036855578 -0.015941143 0.21073151
-0.03594023 -0.015934616 0.21064526
-0.0036386251 -0.016452014 0.21748525
0.0035665035 -0.015445769 0.20418292
0.0058225393 -0.01564458 0.20681107
0.0071849227 -0.015723974 0.20786119
0.023231864 -0.016388297 0.2166428
0.11327475 -0.037407994 0.49450999
0.1727857 -0.038419783 0.50788462
0.18087804 -0.038524926 0.50927448
0.22774816 -0.03728798 0.49292341
0.22569162 -0.035953403 0.47528088
0.24085629 -0.035493582 0.46920192
0.24160057 -0.035163999 0.4648456
0.21072042 -0.029113144 0.3848567
0.21403718 -0.027832955 0.36793411
-0.14112967 -0.020207763 0.27418089
-0.14553422 -0.026298404 0.35681957
-0.086447656 -0.0204418 0.27735645
-0.075502455 -0.021547675 0.29236102
-0.074515045 -0.021807283 0.29588372
-0.036505938 -0.015574306 0.21131384
-0.035156488 -0.01557675 0.21134722
-0.034285724 -0.015388638 0.20879441
-0.024747968 -0.015017062 0.20375299
-0.0045529604 -0.015975088 0.21675146
0.0004953742 -0.014571041 0.19770169
0.00091934204 -0.014593005 0.19799942
0.0071650147 -0.015277475 0.20728594
0.0076313019 -0.015324086 0.20791852
0.0095171928 -0.015500575 0.21031326
0.014591753 -0.015639782 0.21220195
0.016824603 -0.016038805 0.2176165
0.021547258 -0.015751153 0.21371263
0.10825139 -0.037264198 0.50560403
0.11084527 -0.037047565 0.50266516
0.11548191 -0.035186768 0.47741753
0.17155552 -0.035815686 0.4859505
0.2281301 -0.036390513 0.49375018
0.22542465 -0.03546676 0.48121637
0.22618914 -0.035265237 0.47848225
0.24153429 -0.035265923 0.47849202
0.2113471 -0.028673053 0.38903874
0.20960224 -0.027887762 0.37838334
-0.14355415 -0.019214779 0.26777202
-0.14083797 -0.019313186 0.2691437
-0.14363891 -0.020024478 0.27905554
-0.13114697 -0.024349421 0.3393271
-0.12939757 -0.02415821 0.33666223
-0.12929815 -0.024274617 0.33828455
-0.11417216 -0.023541123 0.32806259
-0.088354886 -0.019667298 0.27407831
-0.089692295 -0.020233274 0.28196549
-0.083161414 -0.020862699 0.29073709
-0.07572335 -0.02053085 0.28611255
-0.071720183 -0.020969599 0.29222679
-0.041343153 -0.015282005 0.21296614
-0.035632908 -0.015176386 0.21149451
-0.03433162 -0.015403837 0.21466374
-0.016902864 -0.015001923 0.20906281
0.015205443 -0.015389323 0.21446151
0.11938745 -0.042115599 0.58691144
0.10594982 -0.036233187 0.50493556
0.11202312 -0.034450084 0.48008668
0.22607607 -0.036814541 0.51303768
0.22992659 -0.036212057 0.50464153
0.2254858 -0.034858555 0.48577988
0.20977128 -0.027492166 0.3831234
0.21022487 -0.027232707 0.37950742
0.21176678 -0.026611 0.37084401
0.21925825 -0.024200886 0.33725703
0.20117635 -0.021430105 0.29864395
-0.13673788 -0.023906291 0.34243035
-0.13023585 -0.023395747 0.33511621
-0.1301319 -0.023902863 0.34238106
-0.14162773 -0.027239889 0.39017957
-0.097337186 -0.019646794 0.28141767
-0.087786138 -0.018886 0.27052021
-0.075841129 -0.020334035 0.29126155
-0.048694789 -0.015029639 0.2152822
-0.04503268 -0.015191257 0.21759707
-0.041937172 -0.014917254 0.21367288
-0.039649189 -0.014745772 0.21121621
-0.038473725 -0.014814675 0.21220309
-0.036884427 -0.01472339 0.21089596
-0.036457419 -0.014732957 0.21103263
-0.033752501 -0.014933169 0.21390033
-0.032636762 -0.015051126 0.21558988
-0.010260105 -0.014064759 0.20146149
0.0026478171 -0.014012039 0.20070642
0.0053348541 -0.014315784 0.20505738
0.0099553466 -0.014665931 0.21007216
0.012859881 -0.014910072 0.21356928
0.10556096 -0.035852402 0.5135442
0.16521734 -0.032475978 0.46518052
0.21184772 -0.027440459 0.39305329
0.20974666 -0.026848882 0.38457966
0.21105647 -0.026395887 0.37809098
0.21404427 -0.025877863 0.37067002
0.19830287 -0.020749122 0.29720724
0.2212975 -0.020701498 0.29652512
0.21448994 -0.019506067 0.27940172
0.21457213 -0.01935187 0.27719349
-0.13483268 -0.018155128 0.26750094
-0.098555505 -0.019102573 0.28146112
-0.087758839 -0.018354297 0.27043587
-0.087280691 -0.018375307 0.27074546
-0.090192974 -0.019639552 0.28937304
-0.082470119 -0.019422978 0.28618187
-0.048149526 -0.014585286 0.21490282
-0.047408521 -0.014499098 0.21363252
-0.042572796 -0.014563024 0.21457469
-0.040832341 -0.014596671 0.21507001
-0.037827909 -0.014329284 0.21113026
-0.022967041 -0.014636308 0.21565431
-0.019584358 -0.013872653 0.20440298
-0.017932951 -0.014297694 0.21066493
-0.010737717 -0.013733298 0.20234889
-0.0085608959 -0.01371026 0.20200998
0.0099378228 -0.014232427 0.20970321
0.011206627 -0.014136821 0.20829493
0.011650801 -0.01413554 0.2082755
0.013283551 -0.014459163 0.21304363
0.014519691 -0.014330924 0.21115482
0.10415161 -0.033348352 0.49136099
0.10582268 -0.033213526 0.48937491
0.10980475 -0.032840401 0.48387671
0.11387736 -0.032236665 0.47498119
0.16985536 -0.031882197 0.46975857
0.2273953 -0.03536576 0.52108556
0.2087028 -0.026176423 0.38568854
0.20968336 -0.025790066 0.37999624
0.21278828 -0.025674731 0.37829655
0.21524847 -0.02474907 0.36465716
0.22243291 -0.023069143 0.33990544
-0.11866349 -0.020467192 0.31046152
-0.093022883 -0.017951965 0.2723093
-0.09153527 -0.017776102 0.26964158
-0.081501067 -0.019214898 0.2914663
-0.065860808 -0.018329591 0.27803767
-0.04494673 -0.014317721 0.21718162
-0.033295453 -0.014101446 0.2139014
-0.032640994 -0.014214605 0.21561801
-0.019242883 -0.013542384 0.20542121
0.0090239048 -0.013797849 0.20929694
0.0099290013 -0.013812453 0.20951772
0.021663785 -0.014165193 0.21486807
0.10734671 -0.032092243 0.48679948
0.10957855 -0.031536818 0.47837412
0.23597896 -0.034305185 0.52036619
0.23843622 -0.034499794 0.52331841
0.212686 -0.026327729 0.39935941
0.21612322 -0.024582803 0.37288988
0.20152259 -0.020039886 0.30398047
0.21528912 -0.018284529 0.2773537
-0.17336899 -0.021730006 0.33963436
-0.12878627 -0.020858139 0.3260076
-0.073717654 -0.019733101 0.30842268
-0.0615502 -0.016776115 0.26220644
-0.04811734 -0.013610512 0.21272856
-0.047146738 -0.013997346 0.21877444
-0.036271989 -0.013269186 0.20739377
-0.033123493 -0.013614863 0.21279639
-0.030944586 -0.013861239 0.21664745
-0.022524178 -0.013531685 0.21149641
-0.019755781 -0.01349327 0.21089679
-0.018095493 -0.013267547 0.2073682
-0.017656803 -0.013270974 0.2074216
-0.017145991 -0.013568342 0.21206969
-0.016097426 -0.013449669 0.2102145
-0.014740765 -0.013441652 0.21008956
-0.0085602403 -0.012923628 0.20199335
0.0058595538 -0.013316065 0.20812637
0.012384772 -0.013643771 0.21324873
0.017972231 -0.013733953 0.21465772
0.024589777 -0.013843387 0.21636885
0.10317945 -0.031144142 0.48677441
0.10898137 -0.030439943 0.47576696
0.10947347 -0.030294687 0.47349733
0.15258712 -0.030415952 0.47539294
0.17176026 -0.030756146 0.48070991
0.23677176 -0.034211487 0.53471565
0.25043851 -0.033743054 0.52739495
0.20990777 -0.024338424 0.38040274
0.21735811 -0.024536997 0.3835063
0.21649688 -0.018775403 0.29345423
0.21580398 -0.018036008 0.2818982
0.21819973 -0.017935783 0.28033167
-0.17384821 -0.022344142 0.36017847
-0.1748417 -0.022571832 0.36384833
-0.1013692 -0.016452909 0.26521355
-0.091103256 -0.01675415 0.2700699
-0.087864697 -0.017251611 0.27808863
-0.087016404 -0.017438978 0.28110868
-0.083484232 -0.017329335 0.27934182
-0.048583686 -0.013200134 0.2127803
-0.044439018 -0.013320982 0.21472836
-0.039978921 -0.013364226 0.21542633
-0.016008854 -0.012969166 0.20905769
-0.0093818307 -0.012475282 0.20109618
0.0058797598 -0.012956053 0.20884585
0.0071978569 -0.012918204 0.20823628
0.010347128 -0.012960404 0.2089172
0.012795627 -0.013182819 0.2125017
0.10326946 -0.030224055 0.48719883
0.10594851 -0.030097634 0.48516148
0.10769278 -0.030005813 0.48368096
0.11487812 -0.028950781 0.46667451
0.15761679 -0.028561831 0.46040469
0.16255766 -0.028915614 0.46610701
0.17126656 -0.029914707 0.48221272
0.17236155 -0.029226571 0.47111988
0.2323162 -0.031483799 0.50750554
0.20856881 -0.024101764 0.38851029
0.2082482 -0.023780674 0.3833344
0.20997512 -0.023698181 0.38200432
0.21633613 -0.023327559 0.37603086
0.21711761 -0.017594397 0.28361422
-0.14041835 -0.015676975 0.26088285
-0.15744513 -0.018080503 0.30088001
-0.096511424 -0.014446467 0.2404052
-0.099256456 -0.0156928 0.26114655
-0.097450197 -0.015761822 0.26229411
-0.092899621 -0.016040832 0.26693779
-0.086787641 -0.016177744 0.26921606
-0.081980407 -0.016483873 0.27430999
-0.08273536 -0.017917007 0.29815942
-0.08024174 -0.017929405 0.29836577
-0.078052342 -0.018624336 0.30993003
-0.05855149 -0.015126556 0.25172347
-0.048818409 -0.012729019 0.21182561
-0.049360096 -0.012990743 0.2161808
-0.044336617 -0.013145238 0.21875215
-0.039964318 -0.012940675 0.21534777
-0.036077738 -0.012549341 0.20883548
-0.031274855 -0.012963742 0.21573138
-0.020656466 -0.012402058 0.2063846
-0.01743573 -0.012625277 0.21009922
-0.015531898 -0.012538403 0.20865309
-0.012107432 -0.012232572 0.20356381
-0.0060676932 -0.012337059 0.20530325
0.0076863766 -0.012584537 0.20942104
0.018118203 -0.013004005 0.2164017
0.022152364 -0.013203025 0.21971369
0.024148762 -0.013013572 0.21656072
0.024593353 -0.013003916 0.21640033
0.10596484 -0.029158801 0.48523605
0.15215367 -0.027391762 0.45583045
0.15376377 -0.027505487 0.45772302
0.16323715 -0.028126359 0.46805543
0.17173791 -0.028711289 0.47778934
0.2074247 -0.023126215 0.38484675
0.21652609 -0.017535031 0.2918033
0.21783102 -0.017098963 0.28454596
-0.14728695 -0.015421867 0.26521838
-0.14208382 -0.015472502 0.26609015
-0.1544978 -0.017098159 0.2940467
-0.16849273 -0.0187231 0.32199228
-0.099740803 -0.015089452 0.25950235
-0.095783055 -0.01525411 0.26233459
-0.091574728 -0.015395015 0.26475722
-0.091454685 -0.015470475 0.26605439
-0.086660564 -0.015735775 0.27061659
-0.086206257 -0.015973061 0.27469814
-0.082718074 -0.01620999 0.27877188
-0.084866822 -0.016751707 0.2880888
-0.044774115 -0.012711436 0.21860576
-0.042689621 -0.01264751 0.21750683
-0.0365358 -0.012147188 0.20890218
-0.034897923 -0.012198955 0.20979255
-0.02026087 -0.01202783 0.2068491
-0.018263996 -0.012170225 0.20929861
-0.0086667538 -0.011891574 0.20450646
-0.00077277422 -0.011502057 0.19780815
0.017095745 -0.012511939 0.21517515
0.018530726 -0.012549371 0.21581876
0.025115669 -0.012384564 0.21298468
0.10411733 -0.02827695 0.4862951
0.10604262 -0.028236061 0.48559231
0.14852858 -0.027088106 0.46585053
0.15236914 -0.027420908 0.47157353
0.162938 -0.027334005 0.47007859
0.17170358 -0.026365787 0.45342797
0.17148483 -0.02618441 0.45030838
0.22196603 -0.029869139 0.5136764
0.22287112 -0.029409051 0.50576454
0.25505418 -0.030953377 0.532323
0.20755941 -0.022662133 0.38973308
0.21349317 -0.022851408 0.39298916
0.21361738 -0.021590561 0.37130511
0.21038872 -0.021107405 0.36299604
0.22073746 -0.01653564 0.28437275
-0.14381653 -0.01472497 0.2619943
-0.16947693 -0.018660098 0.33200973
-0.14563268 -0.016238689 0.28892779
-0.14360768 -0.016219229 0.28858119
-0.093707025 -0.014595419 0.25968868
-0.092237294 -0.014715105 0.26181901
-0.090389431 -0.015155882 0.26966178
-0.085569322 -0.015118957 0.26900452
-0.082194984 -0.015132815 0.26925123
-0.082515538 -0.01562956 0.27808934
-0.046337068 -0.012084693 0.21501726
-0.045043886 -0.012232691 0.21765137
-0.044514954 -0.012215227 0.21734017
-0.034894705 -0.011789948 0.20977312
-0.023485959 -0.011690527 0.20800453
-0.016488135 -0.011772901 0.20946985
-0.012559235 -0.011456162 0.20383424
-0.0065432787 -0.011603981 0.20646471
0.004527986 -0.011705011 0.20826221
0.0099050403 -0.011747152 0.20901173
0.01196301 -0.012019545 0.21385747
0.014190018 -0.011970192 0.21298009
0.021078169 -0.012270063 0.21831524
0.024609089 -0.012170196 0.21653843
0.10154629 -0.02747947 0.48892927
0.10719538 -0.02732119 0.48611358
0.10841066 -0.02710554 0.48227549
0.10781902 -0.026454479 0.47069281
0.10860199 -0.026158422 0.46542513
0.1138171 -0.026445687 0.4705351
0.11622232 -0.026767999 0.47627008
0.16394687 -0.026583582 0.47298926
0.16829181 -0.026955634 0.47960943
0.17179179 -0.026861757 0.47793919
0.17112035 -0.026598662 0.47325695
0.17089027 -0.026406795 0.46984333
0.17205161 -0.02568078 0.45692593
0.22377992 -0.028680652 0.51030183
0.2098915 -0.020428747 0.36347878
0.2070955 -0.015686035 0.27909404
0.22057325 -0.016014934 0.28494591
0.22374231 -0.016111553 0.28666532
-0.17377597 -0.018092722 0.33345068
-0.15744907 -0.016736001 0.30844659
-0.091984451 -0.014519483 0.26759565
-0.085227668 -0.015148371 0.27918559
-0.054395854 -0.012459904 0.22963732
-0.04604727 -0.011709839 0.21581364
-0.044465482 -0.011779517 0.21709806
-0.039896905 -0.011664838 0.21498412
-0.030450165 -0.011567265 0.21318638
-0.021074355 -0.011185884 0.20615697
-0.019472003 -0.011278719 0.20786798
-0.017016232 -0.011419594 0.21046466
-0.014756799 -0.011411697 0.21031874
-0.0061160922 -0.011228502 0.2069425
0.002253294 -0.011059523 0.20382857
0.0054171681 -0.011297733 0.20821792
0.016857445 -0.011512488 0.21217662
0.024887979 -0.011882365 0.21899265
0.064900398 -0.026500046 0.48839903
0.10267466 -0.026550382 0.48932657
0.13329977 -0.023635656 0.43560719
0.17105007 -0.024931043 0.45948267
0.2263298 -0.02733779 0.50383788
0.20685458 -0.017320991 0.3192277
0.21074235 -0.017083019 0.3148424
0.20659018 -0.015193969 0.28002614
-0.1489591 -0.01356259 0.25924957
-0.18239921 -0.016794652 0.32103157
-0.1575169 -0.01466915 0.28040177
-0.14722496 -0.01381579 0.26409048
-0.14352137 -0.013785362 0.2635085
-0.1417163 -0.013719708 0.26225269
-0.17000586 -0.016996235 0.324884
-0.17148298 -0.017873913 0.34166199
-0.089605868 -0.013637155 0.26067561
-0.086146891 -0.013531417 0.25865459
-0.08563453 -0.015318751 0.2928189
-0.08489722 -0.015412182 0.29460454
-0.041822851 -0.011395991 0.21783519
-0.034807324 -0.010946721 0.20924801
-0.02826494 -0.01118955 0.21388954
-0.02507776 -0.010994792 0.21016639
-0.024412096 -0.01110068 0.21219027
-0.022802055 -0.010980517 0.20989358
-0.021725357 -0.010890543 0.20817345
-0.017439067 -0.010993361 0.2101388
-0.0082586408 -0.010736376 0.20522624
-0.0078192949 -0.010735363 0.20520759
-0.0052366257 -0.01083681 0.20714664
7.5221062e-05 -0.010678321 0.20411694
0.0063253045 -0.010924071 0.20881426
0.0085311532 -0.010891378 0.20818979
0.0094485283 -0.010923117 0.20879596
0.012601972 -0.010948807 0.20928758
0.015129268 -0.011510283 0.22001994
0.018604457 -0.011624873 0.22221035
0.026276171 -0.011657089 0.22282648
0.10141629 -0.026082307 0.49856517
0.10873121 -0.024377584 0.4659791
0.23692065 -0.028126866 0.53764725
0.22822583 -0.02696386 0.51541591
0.22742957 -0.026486218 0.50628626
0.22731614 -0.026347607 0.50363749
0.20795691 -0.021018296 0.4017666
0.21229035 -0.020853549 0.39861637
-0.15694946 -0.013966769 0.277282
-0.17464858 -0.017754167 0.35247219
-0.16933149 -0.017515868 0.34774125
-0.16096193 -0.016723543 0.33201087
-0.090210021 -0.013056546 0.25920975
-0.048105419 -0.011025101 0.21888089
-0.045824349 -0.010817975 0.21476859
-0.044323742 -0.010569572 0.20983732
-0.043777883 -0.010546148 0.20937204
-0.04255861 -0.010689467 0.21221733
-0.036826849 -0.010606259 0.2105661
-0.030418336 -0.010727018 0.21296316
-0.028279603 -0.010779291 0.21400064
-0.027392864 -0.010790348 0.21421993
-0.026802897 -0.010737389 0.21316862
-0.025325716 -0.010502726 0.20850962
-0.022082031 -0.010444045 0.20734549
-0.020717323 -0.010426283 0.20699245
0.0045015216 -0.010428935 0.20704406
0.007181108 -0.010464549 0.20775151
0.013166308 -0.010636419 0.21116376
0.017238677 -0.011231214 0.22297204
0.020022571 -0.011189044 0.22213548
0.026690006 -0.011197597 0.22230589
0.085384846 -0.029090315 0.5775283
0.10661334 -0.029499412 0.58564985
0.10368007 -0.027711689 0.55015856
0.1038264 -0.026837677 0.5328061
0.10281569 -0.024681419 0.48999873
0.10517651 -0.024744064 0.49124244
0.11002356 -0.024193734 0.4803167
0.1155948 -0.023860365 0.47369862
0.11490041 -0.023511142 0.46676505
0.13251954 -0.022122294 0.43919277
0.13562363 -0.022016674 0.43709546
0.16041023 -0.023750097 0.4715082
0.16935647 -0.02387467 0.47398216
0.17618024 -0.024115354 0.4787609
0.17671001 -0.02286014 0.45384091
-0.14740139 -0.01246956 0.25749624
-0.1497609 -0.012910128 0.26659524
-0.1463334 -0.012760341 0.26350141
-0.14547819 -0.012734771 0.26297361
-0.15982682 -0.016324431 0.33710003
-0.093376815 -0.012032479 0.24847144
-0.088526547 -0.012471467 0.25753605
-0.087614834 -0.012577623 0.25972873
-0.087225616 -0.012682468 0.26189369
-0.08464092 -0.013241351 0.27343446
-0.083897412 -0.0147551 0.30469412
-0.089782774 -0.01683569 0.3476578
-0.083848059 -0.015987456 0.33014137
-0.056466043 -0.011440426 0.23624533
-0.055576146 -0.011361688 0.23462015
-0.049127162 -0.01061818 0.21926558
-0.042490304 -0.010483861 0.21649164
-0.039635181 -0.010586351 0.21860862
-0.033331811 -0.010092527 0.20841134
-0.032035351 -0.010105163 0.20867163
0.0035837889 -0.0099357367 0.20517385
0.0089964271 -0.010104567 0.20866007
0.010809422 -0.010131866 0.20922309
0.10354435 -0.028206617 0.58246815
0.10520446 -0.027661145 0.57120335
0.10419953 -0.023805588 0.49158636
0.11132956 -0.023104817 0.47711462
0.12136006 -0.023668855 0.48876265
0.16768724 -0.022726864 0.46931052
0.16622508 -0.021377772 0.44145209
0.24355316 -0.026895434 0.55539209
0.21987993 -0.024046868 0.49656785
0.21094996 -0.019494504 0.40256196
-0.14662224 -0.011950254 0.25709504
-0.14476043 -0.012257844 0.2637139
-0.15708297 -0.015127212 0.32544452
-0.18159634 -0.018130153 0.39004868
-0.094106972 -0.011980385 0.25774401
-0.086972058 -0.011760503 0.25301367
-0.084616601 -0.01395908 0.30031323
-0.081749976 -0.014836699 0.31919426
-0.08686167 -0.01603204 0.34491032
-0.053961456 -0.010588706 0.22780359
-0.047715247 -0.0099942982 0.21501511
-0.034411609 -0.0097407997 0.20956177
-0.029494464 -0.0098943412 0.212865
-0.02884227 -0.0099835694 0.21478468
-0.02793026 -0.0099857152 0.21483141
-0.021645367 -0.0096406639 0.20740676
-0.0082128644 -0.0094864666 0.20409006
0.0044630766 -0.0095415413 0.2052753
0.0049135089 -0.0095643699 0.2057662
0.012521982 -0.0096662343 0.20795751
0.013000011 -0.0096912682 0.20849657
0.019309044 -0.0097266138 0.20925629
0.022470951 -0.0099381506 0.21380848
0.028549016 -0.010672867 0.22961456
0.10537738 -0.026594192 0.57214236
0.10776013 -0.022936791 0.49345693
0.11868942 -0.022411495 0.48215723
0.13157851 -0.020560771 0.44234055
0.1321072 -0.019790202 0.42576241
0.15422297 -0.021071166 0.45332134
0.16694176 -0.020844579 0.44844663
0.16958034 -0.020583153 0.44282216
0.22476554 -0.025435835 0.54722226
0.2197116 -0.022952884 0.4938041
0.22315615 -0.023201257 0.49914816
0.21551245 -0.018885404 0.40629745
-0.14677221 -0.011462063 0.25735807
-0.1464538 -0.011611283 0.26070821
-0.14667851 -0.01167351 0.26210523
-0.14538938 -0.0117504 0.26383233
-0.14505738 -0.011861563 0.26632863
-0.094577253 -0.010605395 0.23812312
-0.090610087 -0.010499537 0.23574644
-0.091057122 -0.010915518 0.24508655
-0.088390768 -0.01131174 0.25398254
-0.087281764 -0.011379451 0.25550324
-0.085742891 -0.012005031 0.26955026
-0.085144222 -0.012001842 0.26947844
-0.083923519 -0.012158811 0.27300203
-0.085254848 -0.012614816 0.28324115
-0.08415693 -0.013404161 0.30096424
-0.049864352 -0.0097265244 0.21838957
-0.041467011 -0.0099516213 0.22344446
-0.035305977 -0.0093329251 0.20955324
-0.032475293 -0.0092919469 0.20863229
-0.028378308 -0.0095642805 0.21474713
-0.026482642 -0.0095428228 0.21426511
-0.020489693 -0.0093165934 0.20918638
-0.019507766 -0.0092749298 0.20824999
-0.00036436319 -0.0091728568 0.20595843
0.00050604343 -0.0089941919 0.2019465
0.0013712645 -0.0090073347 0.20224208
0.0048906207 -0.0091214776 0.2048046
0.0053324699 -0.0091285706 0.20496452
0.020424545 -0.009858191 0.22134674
0.028588891 -0.010067642 0.22604895
0.067290127 -0.022921652 0.51466072
0.077629983 -0.025207579 0.56598687
0.078462899 -0.025087118 0.56328166
0.1051842 -0.025143296 0.56454247
0.10451442 -0.022183836 0.49809444
0.10971028 -0.022158176 0.49751797
0.1116907 -0.02192077 0.49218762
0.16771907 -0.01950568 0.43796194
0.22395724 -0.024411261 0.54810631
0.22731632 -0.022863775 0.51336181
-0.14675778 -0.01104337 0.25927621
-0.089850247 -0.0098474324 0.23119795
-0.086845219 -0.010965437 0.257447
-0.085599482 -0.012199491 0.28641963
-0.051197588 -0.0094619989 0.22214866
-0.049978077 -0.0093230307 0.21888709
-0.048953235 -0.009306103 0.21848875
-0.046705663 -0.0093236268 0.21889937
-0.045866668 -0.0095383227 0.22394019
-0.032675326 -0.0088199079 0.20707446
-0.030145407 -0.0091259181 0.2142579
0.0067259073 -0.0088341534 0.20740795
0.025988162 -0.0093867779 0.22038317
0.077158868 -0.023960829 0.56255198
0.10570508 -0.019119948 0.44889838
0.14428669 -0.018294245 0.42951161
0.1511628 -0.018690437 0.43881273
0.23118311 -0.022130787 0.51958638
0.23961389 -0.021492451 0.50459969
0.21311688 -0.017252088 0.40504527
0.23197591 -0.017768234 0.41716415
-0.14621228 -0.010580003 0.26027822
-0.086685836 -0.010124892 0.24908346
-0.085727155 -0.010265142 0.25253254
-0.086167872 -0.010516554 0.25871742
-0.054119289 -0.0090422332 0.22244805
-0.050845802 -0.0089680254 0.22062212
-0.043594897 -0.0091283023 0.22456527
-0.026762784 -0.0088016987 0.21653074
-0.025796235 -0.0087878108 0.21618855
0.0013694167 -0.0082096756 0.20196599
0.0026417375 -0.0081397891 0.20024711
0.022901237 -0.0086809397 0.21355969
0.02352047 -0.0087414682 0.21504831
0.10331351 -0.02022022 0.49743837
0.10818732 -0.020137995 0.49541348
0.11006254 -0.020288378 0.49911535
0.12974995 -0.017989248 0.4425531
0.16627336 -0.017848402 0.43908799
0.2273522 -0.022856683 0.56229758
0.24141449 -0.021639496 0.53235257
0.22809184 -0.019883007 0.48914194
-0.19766933 -0.014327973 0.37018931
-0.089703262 -0.0093449056 0.24144262
-0.087217391 -0.0092454851 0.23887414
-0.050587952 -0.0084957182 0.21950305
-0.041217148 -0.0084982812 0.21956915
-0.036268175 -0.0082273185 0.21256757
0.008690238 -0.0078011751 0.20155746
0.009139955 -0.0078173578 0.20197618
0.010037124 -0.0078437328 0.20265752
0.01197511 -0.0079806447 0.20619494
0.013204873 -0.0081969202 0.21178228
0.020340204 -0.0081539452 0.21067232
0.021340609 -0.008192271 0.21166223
0.021791101 -0.0081915855 0.21164423
0.030426979 -0.0088623464 0.2289741
0.10757244 -0.018699676 0.48314023
0.1053766 -0.017972887 0.46436298
0.10391301 -0.0170798 0.44128782
0.10387427 -0.016769022 0.43325818
0.10698235 -0.01696822 0.43840557
0.10941523 -0.016487658 0.42598861
0.11305428 -0.01675716 0.43295085
0.12052536 -0.016638786 0.42989361
0.12900913 -0.017030984 0.4400264
0.12975085 -0.017004937 0.43935353
0.13211995 -0.016710728 0.43175173
0.22668546 -0.018989295 0.49062377
-0.050575674 -0.0080670118 0.21945035
-0.036938548 -0.0077638924 0.21120489
0.0045737028 -0.0077329576 0.21036315
0.0050182939 -0.0077252686 0.21015388
0.025853157 -0.0080592632 0.21923935
0.066511929 -0.018399388 0.50052631
0.10217392 -0.022195667 0.60379744
0.10130465 -0.01774773 0.48279756
0.10190988 -0.017673701 0.48078448
0.10257643 -0.015869111 0.43169338
0.12578851 -0.016124219 0.43863457
0.12869263 -0.016135722 0.43894666
0.12942487 -0.016110092 0.43824959
0.12945509 -0.015998065 0.43520212
0.14959764 -0.016063482 0.43698055
0.14623868 -0.015509158 0.42190075
0.15206295 -0.016027957 0.43601543
0.16476369 -0.016269892 0.44259548
0.16626835 -0.016232103 0.44156712
0.16905558 -0.016227812 0.44145209
0.23564839 -0.019468963 0.52962261
0.23756701 -0.019257456 0.52386832
0.22646862 -0.018018097 0.49015418
0.22373807 -0.017477483 0.47544688
0.22624952 -0.016337961 0.44444811
-0.10798997 -0.0077551007 0.22274691
-0.092884362 -0.0081420541 0.23386109
-0.087349951 -0.0083292425 0.23923737
-0.085411012 -0.0082899034 0.23810822
-0.049826682 -0.0081304014 0.23352605
-0.038601935 -0.0075010657 0.21544969
-0.038064957 -0.0074860156 0.21501774
-0.031939685 -0.0071438849 0.20519143
-0.020620942 -0.0074931383 0.21522307
-0.011831939 -0.0080886483 0.23232704
0.022366226 -0.007409215 0.2128126
0.10701776 -0.020229697 0.58104908
0.10171276 -0.018580049 0.53366637
0.1001581 -0.01645118 0.47251993
0.10080165 -0.015179306 0.4359898
0.10223442 -0.014846057 0.4264186
0.10250551 -0.014753908 0.42377126
0.12401164 -0.015168726 0.43568552
0.12914485 -0.015224993 0.43730128
0.14221853 -0.015124321 0.43441105
0.22580004 -0.019239783 0.55261636
0.23391128 -0.019034773 0.54672855
0.23900992 -0.018436521 0.52954602
0.23129529 -0.017674088 0.50764567
-0.10781461 -0.0072779953 0.22140908
-0.049692333 -0.0070876777 0.21561736
-0.048533618 -0.0076299906 0.23211658
-0.035696507 -0.0068772733 0.20921701
-0.02061218 -0.0070716739 0.21513104
-0.019225895 -0.0070691109 0.2150535
0.015875459 -0.0071448982 0.21735805
0.024032056 -0.007222712 0.21972585
0.12048239 -0.014234692 0.43304169
0.12218159 -0.014217049 0.43250394
0.12650794 -0.014393717 0.43787974
0.1282804 -0.014382601 0.43754095
0.14796466 -0.014296681 0.43492579
0.14799762 -0.014122367 0.42962468
0.23003 -0.016518295 0.50251144
0.22680748 -0.016136199 0.49088749
0.22774059 -0.015908241 0.48395202
0.22092068 -0.014205933 0.43216538
-0.10923702 -0.0067888796 0.2195127
-0.10744637 -0.0068542659 0.22162598
-0.10801154 -0.0069516301 0.22477371
-0.094394505 -0.0072334409 0.23388672
-0.090767443 -0.0072632134 0.23484939
-0.046928942 -0.0066686571 0.21562523
-0.04641062 -0.0066604316 0.21535903
-0.048318684 -0.0071468949 0.23108882
-0.037526429 -0.0067180395 0.21722108
-0.021939754 -0.0066377223 0.21462369
0.01087296 -0.006508708 0.21045315
0.10766184 -0.017870933 0.57784015
0.10114986 -0.013048023 0.42189503
0.11846447 -0.013479084 0.43583304
0.12024355 -0.013366163 0.43218338
0.12732053 -0.013529241 0.43745577
0.14405745 -0.013433427 0.43435633
0.1459921 -0.01344052 0.43458831
0.22870493 -0.016869515 0.54545951
0.22593254 -0.01505354 0.48674223
0.22843522 -0.015081406 0.48764297
0.22950161 -0.015082955 0.48769438
-0.11060685 -0.0063331127 0.2185117
-0.10968024 -0.0063605905 0.21946108
-0.10982019 -0.0071311295 0.2460475
-0.087685764 -0.0070428848 0.24300212
-0.052096069 -0.0062611401 0.21602952
-0.036414742 -0.0061856806 0.21342587
-0.034685433 -0.0060433447 0.20851511
0.0099130869 -0.0060626864 0.20918196
0.022541702 -0.0062162876 0.21448219
0.028468609 -0.0066361427 0.2289682
0.10838783 -0.016482204 0.56868899
0.10809237 -0.016254991 0.56084943
0.10883969 -0.016012222 0.55247366
0.11221325 -0.012876391 0.44427651
0.11338365 -0.012901515 0.44514346
0.12633443 -0.012673587 0.43727905
0.1332857 -0.012623757 0.43556118
0.1459111 -0.01258862 0.43434709
0.1477015 -0.012582988 0.43415231
0.16530782 -0.013019532 0.44921553
0.16546154 -0.012881964 0.44447029
0.22791052 -0.015834719 0.54634976
0.22917134 -0.015841186 0.54657179
0.2285195 -0.01420328 0.49005905
0.23322827 -0.01423493 0.49115235
-0.1093387 -0.0059408247 0.2197172
-0.10729796 -0.0060915649 0.22529262
-0.10653371 -0.0063027442 0.23310316
-0.10147709 -0.0061769187 0.22844905
-0.09201616 -0.0062980056 0.23292822
-0.089801013 -0.0063172877 0.23364091
-0.089232743 -0.0063479245 0.23477417
-0.089136422 -0.0063769519 0.2358467
-0.087450325 -0.0064010918 0.23674071
-0.088286459 -0.0065380037 0.24180269
-0.07967037 -0.0068178475 0.25215364
-0.0517537 -0.0058546364 0.21652979
-0.050109684 -0.0058248937 0.21543056
-0.04960376 -0.0058195889 0.21523327
-0.049184144 -0.0062327683 0.23051453
-0.038087487 -0.0058172047 0.21514505
0.025684595 -0.0058892667 0.21780896
0.065756738 -0.013168007 0.48700953
0.10291773 -0.012148291 0.449296
0.11232626 -0.01192376 0.44099188
0.12984264 -0.011718243 0.4333908
0.13370568 -0.011813998 0.43693382
0.13609171 -0.011778027 0.4356032
0.14244425 -0.011764437 0.43510026
0.14678514 -0.011739701 0.43418646
0.16280019 -0.011757046 0.43482447
0.16724283 -0.011742681 0.43429434
0.1705786 -0.011716723 0.43333638
0.23356938 -0.014910072 0.55143934
-0.11700553 -0.0054987669 0.21912456
-0.11045831 -0.0054301023 0.21639073
-0.10771161 -0.0055265129 0.22023106
-0.1060589 -0.0055882335 0.22269118
-0.096245825 -0.0060483515 0.24102736
-0.09347254 -0.0059057176 0.23534155
-0.090668976 -0.0058225691 0.23202848
-0.08948797 -0.0058752596 0.23412859
-0.087432802 -0.0059396029 0.23669356
-0.087741673 -0.0061018169 0.24315703
-0.0808236 -0.0067382455 0.26851875
-0.050172508 -0.0054128468 0.21570134
-0.049145877 -0.0057227314 0.22805172
-0.038033605 -0.0053912699 0.21484143
0.0099383593 -0.0052625835 0.20971411
0.025322676 -0.0054881871 0.21870446
0.060761034 -0.012056023 0.48043144
0.068672955 -0.012564212 0.50068235
0.10174483 -0.014537334 0.57931024
0.10594577 -0.011393785 0.45404142
0.10561693 -0.010956943 0.43663436
0.10896343 -0.011012226 0.43883669
0.11406416 -0.010961562 0.43681866
0.13178957 -0.010883361 0.43370086
0.14260936 -0.010931104 0.43560475
0.15100896 -0.010799408 0.43035567
0.2076993 -0.0095191896 0.37933904
-0.11723429 -0.0050623417 0.21867728
-0.11677319 -0.0050626099 0.21868902
-0.11657196 -0.005136162 0.22186494
-0.10689789 -0.0051728487 0.22345001
-0.097498119 -0.0052583218 0.22714233
-0.082188904 -0.0062326491 0.26923156
-0.050963223 -0.0050259829 0.21710533
-0.048405707 -0.0049541295 0.21400386
0.025468111 -0.0050920546 0.21996051
0.067696869 -0.011606842 0.50137889
0.10163242 -0.013730317 0.59310615
0.10153973 -0.013383955 0.57814282
0.098823845 -0.010374635 0.44814986
0.11465234 -0.010081887 0.43550628
0.14989817 -0.0099499524 0.4298079
0.15341645 -0.0098807812 0.42681724
0.15890092 -0.0099385083 0.42931163
0.1708836 -0.010330021 0.4462254
0.22966421 -0.012877196 0.55625409
-0.10566694 -0.004662931 0.21989459
-0.10673803 -0.0051201582 0.24145448
-0.10481387 -0.0050769448 0.23941696
-0.09606117 -0.0050741136 0.23928368
-0.082116544 -0.00547418 0.25815034
-0.080487788 -0.0056703985 0.26740348
-0.037991643 -0.004550755 0.21460348
-0.03769654 -0.0045705736 0.21553934
-0.037175596 -0.0045632422 0.21519071
-0.03719759 -0.004681766 0.22078079
-0.0051298738 -0.0043030679 0.20292163
-0.0046976805 -0.0043045282 0.20299101
0.025963247 -0.0046688616 0.22017246
0.10506558 -0.012841761 0.6055879
0.10611731 -0.012361199 0.58292437
0.10594058 -0.012057513 0.56860197
0.10050774 -0.0094813406 0.44711864
0.1039567 -0.0095347464 0.44963592
0.11066389 -0.0092130601 0.43446535
0.23089635 -0.01185891 0.55923837
0.2342366 -0.011968553 0.56440663
0.22929013 -0.010193378 0.48069513
0.20883518 -0.0080566108 0.37993073
0.20592785 -0.007822752 0.36890346
0.20667815 -0.0078213215 0.36883545
-0.11620158 -0.0042084455 0.21849346
-0.10606152 -0.0042324364 0.21973807
-0.10772878 -0.0043568313 0.22619718
-0.10329241 -0.0045667887 0.23709887
-0.095902622 -0.0045528114 0.23637193
-0.035279512 -0.0041382015 0.21484727
-0.017457724 -0.0040518641 0.21036458
-0.0072761178 -0.0038965642 0.20230097
-0.0064187646 -0.0039010942 0.20253664
-0.0051313043 -0.0039096177 0.20297992
0.067068517 -0.009567529 0.49672529
0.144171 -0.0083728135 0.43469882
0.156941 -0.0082144737 0.4264791
0.17237079 -0.0084803402 0.44027954
0.17410153 -0.0084728897 0.43989736
0.20663345 -0.0074137151 0.38490516
0.20746768 -0.0070773661 0.36744118
-0.11609739 -0.0038108528 0.22006637
-0.11075777 -0.0037731528 0.2178899
-0.11043221 -0.003777951 0.21816677
-0.10645634 -0.0038025081 0.21958351
-0.10593122 -0.0038004816 0.21946812
-0.1068278 -0.0039018095 0.22531688
-0.10304326 -0.0038503408 0.22234589
-0.10315055 -0.0038721859 0.22360885
-0.10478395 -0.0041047037 0.23703438
-0.096032083 -0.0041204393 0.2379443
-0.091622174 -0.0041279793 0.23837966
-0.09005338 -0.0042462051 0.24520677
-0.051873505 -0.0037582815 0.21703082
-0.020922661 -0.0035443008 0.20467389
-0.01793915 -0.0036492944 0.21073753
-0.0051322579 -0.0035155714 0.20301491
0.023947716 -0.0037189424 0.21475786
0.10247439 -0.0093106329 0.53766251
0.10172653 -0.0088458359 0.51082492
0.11352998 -0.0075289309 0.43477279
0.17075139 -0.0078527629 0.45347267
0.17382777 -0.0076056421 0.43920553
0.20446229 -0.0065432191 0.37785196
0.20677859 -0.0064146221 0.37042743
-0.10942382 -0.0033657551 0.21894789
-0.1064474 -0.003375262 0.21956545
-0.10867351 -0.0034920573 0.22716165
-0.10365433 -0.0036397278 0.23676842
-0.10309249 -0.0036377609 0.23664051
-0.052285492 -0.0033330023 0.21681535
-0.050488889 -0.0033063889 0.21508443
-0.024553835 -0.0031076372 0.20215487
-0.02412641 -0.0031082034 0.20219356
-0.016891718 -0.0032117069 0.20892465
-0.011196792 -0.0031180084 0.20282996
-0.010318756 -0.0031147301 0.20261592
-0.0064121485 -0.0031103194 0.20232981
0.019003749 -0.0031659603 0.20594895
0.02788645 -0.0033895671 0.22049558
0.1025852 -0.0079189837 0.51513684
0.09682399 -0.0072410405 0.47103977
0.098829567 -0.0068234503 0.44387347
0.11119086 -0.0066547692 0.43290186
0.1467067 -0.006506443 0.42325103
0.14742637 -0.0064982772 0.42272079
0.15386254 -0.0065414011 0.42552829
0.16656446 -0.0068001151 0.44235361
0.20523244 -0.0058304369 0.37927532
-0.10813361 -0.002943188 0.21917826
-0.10739857 -0.0030011833 0.22349793
-0.098793805 -0.0030451715 0.22677332
-0.095634997 -0.0030998588 0.23084784
-0.096935093 -0.0031583011 0.23519981
-0.093306243 -0.0031044483 0.23119032
-0.049400866 -0.0028783977 0.21435356
-0.024073541 -0.0027091205 0.2017504
-0.021284044 -0.0027386248 0.2039454
-0.016749024 -0.0027817786 0.20716053
-0.012552083 -0.002735585 0.20371819
-0.0099066496 -0.0027264953 0.203044
0.018618405 -0.0027737021 0.20655698
0.10805392 -0.0058436096 0.43517369
0.11397731 -0.0058136284 0.43294215
0.15134227 -0.0056877434 0.42356569
0.15845132 -0.0057819486 0.43058354
0.21042222 -0.0055043995 0.40991443
0.20641804 -0.0049655139 0.36978167
-0.10352463 -0.0025535524 0.22235942
-0.098794878 -0.0026042759 0.22677547
-0.099847734 -0.0027395487 0.23855501
-0.091007054 -0.0026892126 0.23417467
-0.051458299 -0.0024947226 0.21723646
-0.024507821 -0.0023171604 0.2017765
-0.0213238 -0.0023464859 0.20432633
-0.01852262 -0.0023237765 0.2023499
-0.010774732 -0.0023317635 0.20304686
0.02546072 -0.0024794936 0.21591085
0.098421812 -0.0050763786 0.44204217
0.10846913 -0.0049738884 0.43311751
0.11206084 -0.004968971 0.4326883
0.14576805 -0.0047998726 0.41796577
0.14632416 -0.0047887862 0.41700476
0.15642196 -0.0049388409 0.4300645
0.17332464 -0.0050021708 0.43558192
0.17439592 -0.0050061941 0.43593264
-0.10029739 -0.0022402108 0.2348327
-0.099485457 -0.0022674501 0.23768938
-0.090599477 -0.0021997094 0.23058951
-0.09254247 -0.0023625493 0.24765992
-0.045462549 -0.0019733012 0.20685619
-0.024086058 -0.0019256175 0.2018553
-0.017726064 -0.0019377768 0.20313424
-0.015999138 -0.0019389987 0.2032578
-0.014650285 -0.0019329488 0.2026276
0.026692927 -0.0020838082 0.21844167
0.027611494 -0.0020827055 0.21832144
0.028093457 -0.0020838082 0.21844053
0.098846912 -0.0047864318 0.50174975
0.098049939 -0.0042009652 0.44037193
0.10659385 -0.0042413473 0.44460166
0.11033279 -0.004132241 0.43316579
0.11282188 -0.004121691 0.4320609
0.11482549 -0.0041272938 0.43265152
0.16784513 -0.0042045712 0.44075114
0.16816229 -0.0041657388 0.43668216
0.16994226 -0.0041636229 0.43645942
0.20729208 -0.0036400855 0.38157433
-0.10027736 -0.0018012822 0.23715955
-0.096159279 -0.0019001961 0.2501843
-0.091169655 -0.0018116534 0.23852861
-0.090663612 -0.0018428266 0.24263197
-0.023364484 -0.0015424788 0.2030834
-0.016874611 -0.0015443861 0.20333761
-0.016005635 -0.0015443861 0.20334005
0.020950854 -0.0015782416 0.20779628
0.025352836 -0.0016329587 0.21499556
0.029329479 -0.0017037988 0.22432327
0.093570292 -0.0035308301 0.46487832
0.10103929 -0.0033502281 0.44109523
0.1085515 -0.0032921135 0.43344629
0.14577508 -0.0031553507 0.41543978
0.15811908 -0.0032446682 0.4271993
0.17183226 -0.0033154488 0.43652111
0.20645982 -0.0029444396 0.38766843
0.20831805 -0.0029355586 0.38650417
0.2089358 -0.0029326677 0.38611901
-0.10820657 -0.0012340248 0.21838051
-0.10541552 -0.0012913048 0.2285189
-0.10078591 -0.001313746 0.23248619
-0.098952115 -0.0013291538 0.23521417
-0.097923696 -0.0013567209 0.24008822
-0.091597497 -0.0013032258 0.23062062
-0.091438949 -0.0013222992 0.23399884
-0.09551698 -0.0013965666 0.24713868
-0.094462216 -0.0014044046 0.24853283
-0.09158963 -0.0013694465 0.2423377
-0.053406179 -0.001219064 0.21572679
-0.050571382 -0.0012399852 0.21943164
-0.050138891 -0.0012408793 0.21959144
-0.017715096 -0.0011471808 0.2030077
-0.013290584 -0.0011398494 0.20170987
0.019178152 -0.0011744797 0.2078383
0.020664871 -0.0011832714 0.20939934
0.021098852 -0.0011825562 0.20926535
0.026177883 -0.0012321174 0.21804047
0.027939022 -0.0012275875 0.2172398
0.030607998 -0.0012610555 0.22315776
0.093995631 -0.0027559698 0.48770711
-0.10739774 -0.00081038475 0.21863383
-0.052401841 -0.00079837441 0.21538848
-0.051392257 -0.00080412626 0.21695757
-0.045070708 -0.00077518821 0.20914131
-0.041702211 -0.00075471401 0.20360684
-0.01640892 -0.00075227022 0.20295304
-0.015982389 -0.00075259805 0.20304453
-0.011612892 -0.0007506907 0.20252633
0.012900352 -0.00076687336 0.2068972
0.013151228 -0.0007558763 0.20393097
0.014549434 -0.00076064467 0.20520908
0.015045166 -0.0007635355 0.20598996
0.016448438 -0.00076738 0.20702934
0.021686375 -0.00078070164 0.21062666
0.026107073 -0.00080597401 0.21745127
0.028815627 -0.00080376863 0.21684813
0.092184722 -0.0017344058 0.4679324
0.10444373 -0.0016590655 0.44760466
0.17448986 -0.001643002 0.44327235
0.17429203 -0.001632303 0.44037867
0.17530572 -0.0016242564 0.43820679
-0.10693604 -0.00038531423 0.21864551
-0.049987257 -0.00038221478 0.21689713
-0.040056467 -0.00035965443 0.20409083
-0.035503268 -0.00036218762 0.20551032
-0.034160912 -0.00035282969 0.20021671
-0.0099671483 -0.00035998225 0.20428419
-0.005140543 -0.00035831332 0.20334548
0.0072084069 -0.00036749244 0.20854104
0.0081492662 -0.00036975741 0.20981401
0.018855214 -0.00036862493 0.20918399
0.024251461 -0.0003760457 0.21339101
-0.10692126 3.97861e-05 0.21861523
-0.10464782 4.1335821e-05 0.22685486
-0.10420078 4.1306019e-05 0.22693694
