# .PCD v0.7 - Point Cloud Data file format
VERSION 0.7
FIELDS x y z
SIZE 4 4 4
TYPE F F F
COUNT 1 1 1
WIDTH 1330
HEIGHT 1
VIEWPOINT 0 0 0 1 0 0 0
POINTS 1330
DATA ascii
-0.23031777 -0.023058036 0.37383389
-0.23232894 -0.0238181 0.4241479
-0.23500158 -0.024332736 0.45931017
-0.13568154 -0.023708908 0.33645138
-0.12524734 -0.024098724 0.35267997
-0.05127554 -0.023128074 0.22879381
-0.040714882 -0.023046006 0.21472175
-0.033669695 -0.023110202 0.21294716
-0.022726076 -0.023183675 0.20851243
-0.0076896898 -0.023353864 0.20684405
-0.0066899746 -0.023400841 0.20901552
-0.0043639359 -0.023442704 0.20975088
0.006545051 -0.023772642 0.22175014
0.021357391 -0.023902692 0.21770334
0.024872679 -0.024618378 0.26056489
0.028246596 -0.023833053 0.20749685
0.089205071 -0.030622726 0.59105265
0.10620843 -0.031749237 0.64893788
0.15127197 -0.03127962 0.58125412
0.17378724 -0.031188685 0.55663145
0.26758641 -0.034959059 0.71956038
0.2448639 -0.030909676 0.47942254
0.24219693 -0.030568585 0.45982355
0.24177517 -0.030507691 0.45627886
0.21555652 -0.029106045 0.3884837
0.23870911 -0.029390747 0.38736632
0.23941103 -0.029392185 0.38687137
0.21473315 -0.027856583 0.30921882
0.23239353 -0.028166076 0.31427678
0.23859957 -0.028079161 0.30353019
0.22529611 -0.027464071 0.27528134
-0.24513012 -0.022040319 0.37741745
-0.23570788 -0.022103328 0.37299788
-0.23378184 -0.022105714 0.37132639
-0.23022152 -0.022407582 0.38996759
-0.23082773 -0.022655802 0.40868387
-0.22769286 -0.022725619 0.41077861
-0.22094339 -0.02286097 0.4142037
-0.2340683 -0.02338036 0.46471387
-0.14929688 -0.022807324 0.34167406
-0.12419644 -0.023281617 0.35228261
-0.15517558 -0.02519498 0.5217135
-0.13259427 -0.024815055 0.47233495
-0.1303 -0.024847778 0.47252825
-0.06501247 -0.022545952 0.24185915
-0.06465105 -0.022567032 0.24305589
-0.05357695 -0.022428436 0.22232847
-0.053300746 -0.022452341 0.22380942
-0.034294467 -0.022508927 0.20973897
-0.03390706 -0.022530198 0.21092092
-0.023846911 -0.022622738 0.20805067
-0.010052242 -0.022787621 0.20688155
-0.0072550746 -0.022849614 0.20873176
-0.0036808327 -0.022895455 0.20865814
-0.0023117778 -0.02287749 0.20603593
0.015884807 -0.023191949 0.21158023
0.020695409 -0.023282025 0.2135521
0.028935611 -0.023335766 0.20958598
0.031862561 -0.023519211 0.22018312
0.033908181 -0.02359302 0.22361524
0.093518503 -0.029938182 0.63003093
0.096782714 -0.030198717 0.64593834
0.10354578 -0.028896002 0.54429895
0.10701465 -0.029023753 0.55030513
0.15491961 -0.030222636 0.59200513
0.18096907 -0.03062157 0.59620285
0.1730707 -0.029660139 0.53353542
0.26485324 -0.033653196 0.7373268
0.28061661 -0.033884633 0.73913509
0.22364892 -0.02909407 0.4437474
0.22184102 -0.028973432 0.43666771
0.24822372 -0.030013975 0.48741257
0.2458584 -0.029650819 0.46314949
0.23521434 -0.029074147 0.43121848
0.23114876 -0.027914584 0.35040757
0.21434934 -0.027140232 0.30992919
0.2225641 -0.026908457 0.28513312
0.21722229 -0.026129087 0.23331733
0.22190841 -0.026053213 0.22328335
-0.23399192 -0.021199152 0.36829028
-0.23178349 -0.021222474 0.36780083
-0.23087555 -0.02125565 0.36960733
-0.23172854 -0.021344336 0.37810567
-0.22827522 -0.02171478 0.40576145
-0.22718826 -0.021752048 0.40771878
-0.22582278 -0.021786969 0.40915999
-0.22483021 -0.021801434 0.40927589
-0.12015399 -0.022667075 0.36563328
-0.12254006 -0.022949213 0.39231452
-0.15364727 -0.023947539 0.51213515
-0.15132163 -0.023935176 0.50847548
-0.1326576 -0.023759123 0.47257876
-0.1329893 -0.023819478 0.47808388
-0.067659013 -0.021961238 0.24673666
-0.06450282 -0.021952987 0.24249704
-0.045938641 -0.021922113 0.219065
-0.038743407 -0.021995166 0.21722314
-0.033607449 -0.022009039 0.2126448
-0.034245986 -0.022125674 0.22328417
-0.033134952 -0.022194777 0.22792237
-0.024932729 -0.022015572 0.20347996
-0.02302004 -0.022075962 0.20647736
-0.017325396 -0.022172553 0.20831329
-0.0073013441 -0.022316661 0.20934165
-0.0029743831 -0.022348126 0.20716853
0.094658822 -0.027990907 0.57794219
0.10149273 -0.028204544 0.58846635
0.10392859 -0.028206252 0.58587819
0.099852279 -0.027567832 0.53612155
0.10384763 -0.027332859 0.51164985
0.11004815 -0.027331185 0.50455588
0.15354967 -0.028776607 0.57880574
0.15937279 -0.028458912 0.54524571
0.1802126 -0.029101368 0.576563
0.26952368 -0.03202631 0.72538131
0.27250829 -0.032114182 0.72951144
0.25155869 -0.028832024 0.47368622
0.22257985 -0.02682347 0.33523902
0.21432415 -0.026363987 0.30539098
0.21459872 -0.026356596 0.304452
0.22785375 -0.026380479 0.29163089
0.22302437 -0.025987137 0.26357272
0.21858631 -0.025350941 0.2144078
0.22496907 -0.025482237 0.21842858
0.22664775 -0.02550308 0.2183214
-0.24403083 -0.020194201 0.3672969
-0.23252749 -0.020347456 0.36740309
-0.23891479 -0.020530852 0.39470723
-0.24262689 -0.020680731 0.41498414
-0.23810618 -0.020816326 0.42270786
-0.2256026 -0.020804122 0.40460834
-0.15009503 -0.021140132 0.33705589
-0.12773779 -0.021454679 0.33897343
-0.12550116 -0.021496419 0.34020841
-0.12448571 -0.021531744 0.34244186
-0.13525721 -0.022120629 0.41697711
-0.061850391 -0.021304604 0.2348509
-0.061121356 -0.021311458 0.23457299
-0.050185367 -0.021352913 0.22405495
-0.04579173 -0.021355603 0.21840367
-0.039088424 -0.021450389 0.21902674
-0.035767742 -0.02144991 0.21450211
-0.035074431 -0.021454658 0.21405198
-0.034512803 -0.021567963 0.22484207
-0.027765485 -0.021551777 0.21409391
-0.027021421 -0.021553058 0.21322259
-0.011912848 -0.021699946 0.20782493
0.014119003 -0.022066807 0.21011172
0.021320544 -0.022199638 0.21394254
0.097538501 -0.027377212 0.63884211
0.097122349 -0.027210349 0.62240171
0.14516544 -0.027211385 0.55773711
0.26636708 -0.029931972 0.67160118
0.23450622 -0.027619997 0.4789356
0.22547834 -0.027172232 0.44547606
0.22487806 -0.02709876 0.43879783
0.24077344 -0.026825061 0.38947251
0.24320129 -0.026867703 0.39054981
0.2141287 -0.025629146 0.30351731
0.2213456 -0.025273982 0.2575919
0.22355805 -0.025306368 0.25791287
0.21756993 -0.024981106 0.23283897
0.21906638 -0.024951424 0.22779641
0.22120781 -0.024950102 0.22477837
0.22155543 -0.024951205 0.22441737
0.22077878 -0.024856569 0.21582063
0.22505368 -0.024947474 0.21932246
-0.24379858 -0.019332975 0.36689496
-0.24511959 -0.019371521 0.37402114
-0.23126291 -0.019512663 0.36855781
-0.23713596 -0.019600544 0.38963369
-0.24627192 -0.01971638 0.41976556
-0.15526043 -0.020099685 0.31485841
-0.13516407 -0.020507568 0.33273822
-0.13292903 -0.020564305 0.33617678
-0.1316994 -0.021076018 0.39909258
-0.12452997 -0.021196695 0.40231714
-0.053394835 -0.02076089 0.22691952
-0.04677622 -0.020772781 0.21725766
-0.042056292 -0.020820534 0.21535721
-0.041467424 -0.020829318 0.21547958
-0.038272377 -0.020891836 0.21802957
-0.032717329 -0.021024352 0.22548537
-0.016841825 -0.021108119 0.20933224
0.0099228723 -0.021481313 0.21156046
0.01829461 -0.021584332 0.21051973
0.088246383 -0.025244793 0.55737346
0.10101752 -0.025238095 0.53496593
0.13404475 -0.02557165 0.52159047
0.13586451 -0.025175404 0.46819851
0.17888725 -0.026685622 0.58739853
0.17930874 -0.026661001 0.58356047
0.26135913 -0.028434776 0.67037225
0.26859239 -0.02859157 0.67807794
0.24573672 -0.026941502 0.50708449
0.22414933 -0.024998821 0.29677668
0.22171181 -0.024713771 0.26468581
0.21923548 -0.02441328 0.23070215
0.21953516 -0.024385607 0.22667763
0.21919933 -0.024370385 0.22531264
0.22162607 -0.024396138 0.2244841
-0.24397284 -0.018481376 0.36879224
-0.23227686 -0.018636573 0.36863065
-0.23102485 -0.018670553 0.37155572
-0.23736148 -0.018695662 0.39002836
-0.24630861 -0.018915964 0.44728085
-0.15864238 -0.019289505 0.31305644
-0.13025846 -0.019819766 0.33856961
-0.13425145 -0.020192947 0.41043854
-0.14685239 -0.020466529 0.48487702
-0.058364518 -0.020143652 0.23144914
-0.057909384 -0.020154407 0.23223804
-0.046082757 -0.020221431 0.21693042
-0.039086219 -0.020308586 0.21587899
-0.0091027822 -0.02067191 0.20966455
-0.0047451886 -0.020716399 0.20736898
0.011745915 -0.020955017 0.21048391
0.018299483 -0.021039477 0.20998189
0.021303756 -0.021091146 0.21192375
0.023172367 -0.021135071 0.21513261
0.026345458 -0.021319041 0.23898818
0.029203895 -0.021213768 0.21482672
0.031111186 -0.021250643 0.21674234
0.078098133 -0.024383212 0.63895124
0.079600386 -0.02440328 0.63895869
0.090363242 -0.024477357 0.62722367
0.096250914 -0.02455532 0.6271255
0.10595953 -0.023983855 0.50898755
0.12321524 -0.02447344 0.55268043
0.13338459 -0.024404196 0.51814097
0.13634549 -0.024422055 0.51449162
0.13919821 -0.024402903 0.50484657
0.18007769 -0.025306493 0.56516427
0.18632509 -0.025351761 0.55874372
0.27123562 -0.027266849 0.69049394
0.2423915 -0.025778685 0.5045917
0.21094239 -0.024630664 0.38185889
0.21003056 -0.024519073 0.36511436
0.21003485 -0.024507293 0.36311284
0.22382912 -0.02429414 0.29616672
0.22510216 -0.02429327 0.29315639
0.22652048 -0.024319103 0.29432085
0.219696 -0.024058966 0.26583904
0.21996044 -0.023823163 0.22550945
0.22016729 -0.023822574 0.22493944
-0.23260994 -0.017798627 0.37610933
-0.25065467 -0.017747432 0.42385027
-0.14665054 -0.018601518 0.28862599
-0.12861693 -0.019044312 0.33894873
-0.12781781 -0.019056037 0.33920258
-0.12972216 -0.019324047 0.41268194
-0.13424179 -0.019337112 0.43112993
-0.056930702 -0.019584464 0.23358673
-0.054982893 -0.019610839 0.2336556
-0.040756527 -0.01975194 0.2212359
-0.023820128 -0.019926256 0.20803018
-0.016793538 -0.02004463 0.21407738
-0.011979761 -0.020087453 0.2086404
0.01234532 -0.020422162 0.21079749
0.012942732 -0.020430073 0.21077079
0.013538486 -0.020438481 0.21087816
0.015929271 -0.020465897 0.20972496
0.022455093 -0.020551978 0.20936896
0.031390358 -0.020722454 0.22205594
0.083360024 -0.023115842 0.64680189
0.093449913 -0.023288259 0.65610665
0.087383166 -0.022827353 0.56107962
0.12457006 -0.023292758 0.55277705
0.17972168 -0.024374979 0.6386165
0.16038671 -0.023631288 0.51733214
0.16275905 -0.023681555 0.52194381
0.1821963 -0.024168167 0.57853335
0.17314105 -0.023790566 0.51440573
0.1864507 -0.024147548 0.55909336
0.20395784 -0.024557553 0.60298383
0.21025978 -0.023752144 0.3802115
0.22529411 -0.023612298 0.29474398
0.22111024 -0.02344989 0.26812834
0.21781127 -0.023254678 0.23033583
0.2240783 -0.023305293 0.22197616
0.22509386 -0.023301719 0.21766242
-0.23372658 -0.016891884 0.36945215
-0.23272948 -0.016915793 0.37456238
-0.2344393 -0.016909923 0.38292247
-0.23536937 -0.016904607 0.38640383
-0.23835889 -0.016883053 0.39550656
-0.14035198 -0.017972169 0.283281
-0.12612197 -0.018279182 0.33944046
-0.12664244 -0.018302297 0.3541083
-0.057931837 -0.018982796 0.23501025
-0.05349179 -0.01903251 0.23010123
-0.052477546 -0.019048616 0.23131551
-0.045794334 -0.019112263 0.21847767
-0.044629626 -0.019128691 0.21884088
0.00372759 -0.019775078 0.2165001
0.010559651 -0.019855473 0.2108646
0.013544112 -0.019896083 0.21107064
0.029658552 -0.020140951 0.2246467
0.032944925 -0.020191353 0.22764465
0.084500499 -0.021675926 0.61230123
0.12442864 -0.022089295 0.55181277
0.14048022 -0.022209136 0.50495046
0.15051262 -0.022391882 0.52814281
0.17493068 -0.022917632 0.62401736
0.2612727 -0.024254942 0.70904261
0.24226925 -0.023836743 0.63002372
0.22914369 -0.023315506 0.46235678
0.21122652 -0.022901064 0.37808344
0.21130371 -0.022898126 0.37613776
0.21029766 -0.022815701 0.34261882
0.22423613 -0.022759354 0.22383864
-0.24054709 -0.015935333 0.37792522
-0.12780957 -0.017458022 0.36031613
-0.1244016 -0.017503886 0.3584832
-0.057957686 -0.018387554 0.22728273
-0.055804972 -0.018416239 0.22376798
-0.058104303 -0.018386491 0.23572503
-0.04962375 -0.018500261 0.22727993
-0.042165838 -0.018599484 0.21300596
-0.019020505 -0.018912485 0.21254039
-0.010764225 -0.019023642 0.20851149
0.0087911459 -0.019288346 0.21025419
0.0093623642 -0.019296162 0.21123055
0.021220168 -0.019455824 0.20544782
0.021834707 -0.0194644 0.20702416
0.088277489 -0.020402992 0.55682468
0.098898552 -0.020549063 0.57781535
0.10399355 -0.020616494 0.56513572
0.13466755 -0.021023933 0.50010651
0.16873008 -0.021491028 0.55646676
0.1813733 -0.021666048 0.59133261
0.24122144 -0.022480536 0.63579291
0.24718581 -0.022558246 0.60997683
0.21068354 -0.022033842 0.34157529
0.22517738 -0.022223083 0.28187433
0.22576088 -0.02222446 0.225108
-0.23685476 -0.015102351 0.378362
-0.23649848 -0.015105198 0.37947991
-0.1262871 -0.016660318 0.34770578
-0.12551793 -0.016639652 0.36472982
-0.063485906 -0.01771252 0.23866101
-0.057381716 -0.017806171 0.23279077
-0.055983234 -0.017820856 0.23514068
-0.045485463 -0.017985841 0.22289391
-0.038585451 -0.018085269 0.21976829
-0.035150219 -0.018141409 0.2146011
-0.032424618 -0.018181326 0.21299097
-0.031069692 -0.018201241 0.21216953
-0.030705852 -0.018189922 0.22107501
-0.01988285 -0.018348804 0.21457846
-0.0090572257 -0.018505268 0.20942895
-0.007340611 -0.018526986 0.21029632
-0.0016086623 -0.018597705 0.21420704
-0.0010059276 -0.018605797 0.21426384
0.00082073937 -0.018630896 0.21412288
0.0014260645 -0.018639091 0.21413335
0.0069179782 -0.018715968 0.21288675
0.0081718098 -0.018735986 0.21125489
0.018861499 -0.018897805 0.20212892
0.027039552 -0.018941598 0.23899855
0.027706498 -0.018950088 0.23931536
0.029551096 -0.01900709 0.22181056
0.031371806 -0.019033078 0.221132
0.089890748 -0.019210814 0.55908847
0.11000239 -0.019513652 0.54285598
0.11147957 -0.01954668 0.53578991
0.15801454 -0.020203 0.52252269
0.27909616 -0.021525349 0.69907981
0.20891677 -0.021194136 0.35839444
0.2262888 -0.02156654 0.28369927
0.22204669 -0.021524137 0.27537581
0.22030948 -0.02157449 0.23486753
0.22177841 -0.021598862 0.23246059
-0.24721453 -0.013945536 0.41353425
-0.12677631 -0.015889065 0.33378336
-0.1281109 -0.015788252 0.35572073
-0.069035821 -0.016994772 0.24938129
-0.058390819 -0.017216664 0.22902362
-0.048714407 -0.017348809 0.22900461
-0.045584079 -0.017412698 0.22337411
-0.039151147 -0.01751511 0.21949169
-0.0038025838 -0.018028934 0.21111298
-0.0016101033 -0.018046718 0.21433228
-0.00099824811 -0.018055391 0.21424732
-0.00038911059 -0.018063877 0.21420398
0.00083384768 -0.018081255 0.21401122
0.010559273 -0.018221773 0.2119298
0.011160146 -0.018230131 0.21188438
0.01477535 -0.018289702 0.20917071
0.01536883 -0.018297872 0.20915404
0.01596144 -0.018304657 0.2095015
0.017740438 -0.018331682 0.20877427
0.018896345 -0.018360315 0.20535575
0.030110467 -0.018456882 0.2203418
0.03138195 -0.018471166 0.22114661
0.032622311 -0.018487604 0.22126782
0.033214886 -0.018497333 0.22084132
0.12162322 -0.018720631 0.48175153
0.27523184 -0.019932177 0.71646386
0.28380835 -0.019970374 0.73738915
0.24881929 -0.020017534 0.59815919
0.24304777 -0.020275086 0.50888366
0.2219141 -0.020871747 0.27392924
0.22870192 -0.020952987 0.2769548
-0.24653119 -0.013031978 0.40842149
-0.2463519 -0.013025314 0.41001242
-0.060084641 -0.016541881 0.24109672
-0.058365736 -0.016558444 0.24232125
-0.03973503 -0.016963029 0.21616501
-0.038268749 -0.016971817 0.21815322
-0.027831374 -0.017134203 0.21475174
-0.0044402187 -0.01747218 0.21169797
0.0013606281 -0.017529305 0.21561164
0.013580783 -0.017725598 0.21055557
0.029457306 -0.017893326 0.21928586
0.035591152 -0.017921975 0.22898676
0.081654891 -0.015771177 0.71635973
0.081886284 -0.01667569 0.558456
0.083668746 -0.016675731 0.56271762
0.082314327 -0.016929673 0.51498753
0.094943061 -0.017143574 0.50782752
0.11709186 -0.017629061 0.47594669
0.12161092 -0.017726904 0.46965349
0.14939857 -0.017956091 0.49620515
0.22965983 -0.020251079 0.28681922
0.22937821 -0.020304086 0.27685681
0.22092824 -0.020428451 0.23479094
-0.13038796 -0.013975601 0.37083653
-0.14727572 -0.012795849 0.49467912
-0.070791759 -0.015789391 0.24093366
-0.070073336 -0.015800558 0.24077015
-0.048978824 -0.016148591 0.23322053
-0.037162237 -0.016446013 0.21559873
-0.029554438 -0.016562153 0.21410224
-0.028909497 -0.016572705 0.21388462
-0.0072905961 -0.016900469 0.2099275
0.011199371 -0.017149478 0.21064283
0.024198798 -0.017361831 0.20626564
0.081177875 -0.014290496 0.71027082
0.083698601 -0.015548019 0.55041629
0.095260493 -0.016016345 0.5099982
0.098302715 -0.016219223 0.48895532
0.11042389 -0.016202541 0.5129329
0.11682829 -0.016585506 0.47439107
0.15537347 -0.01716003 0.46863344
0.1565541 -0.017174732 0.4688316
0.21801224 -0.019711478 0.24778345
0.21967471 -0.019974206 0.21642032
-0.13196522 -0.0130735 0.37267989
-0.1337785 -0.012911892 0.38691941
-0.14419971 -0.011835623 0.48411292
-0.065920405 -0.015255829 0.24032363
-0.059737924 -0.015320946 0.24244472
-0.058582 -0.015329234 0.24324474
-0.049801122 -0.015510263 0.2370249
-0.049218278 -0.015514798 0.2373908
-0.0034132143 -0.01628378 0.22322062
0.0010912133 -0.016368335 0.22090173
0.0048523983 -0.01642964 0.21992618
0.00743117 -0.016497372 0.21657474
0.011837062 -0.016633492 0.20873463
0.017766532 -0.016710276 0.2092725
0.021407731 -0.016714355 0.21409555
0.022403402 -0.016823528 0.2041484
0.02631945 -0.016757483 0.21667844
0.034488916 -0.016828407 0.22105433
0.035183311 -0.016826274 0.22227642
0.071987987 -0.012989273 0.67535865
0.088555999 -0.013447918 0.65141648
0.094888464 -0.015086477 0.48969665
0.094319046 -0.015196745 0.47738472
0.096133687 -0.015178052 0.48194999
0.11076107 -0.014754593 0.54717261
0.11502344 -0.015486873 0.4769702
0.11735931 -0.01545688 0.48346049
0.12156238 -0.015595721 0.47504511
0.12638941 -0.015758235 0.46505645
0.12840132 -0.015745079 0.4693256
0.12924241 -0.015770098 0.46792895
0.13999979 -0.015538087 0.50762337
0.1525026 -0.015325163 0.54783541
0.14106788 -0.015911888 0.47019172
0.25535664 -0.015925374 0.63346708
0.25116318 -0.016544158 0.56291395
0.22906299 -0.019010009 0.27397129
0.22213137 -0.019449295 0.21819133
-0.12071383 -0.012980903 0.31913853
-0.12063003 -0.012957035 0.32130536
-0.14651987 -0.010723092 0.48384264
-0.064637303 -0.014635857 0.24313079
-0.059182126 -0.014713739 0.24294458
-0.048186742 -0.014914208 0.23879816
-0.032046478 -0.015459546 0.21093896
-0.0082517918 -0.015752232 0.2141986
-0.0049511599 -0.01564767 0.22723697
0.00097111578 -0.015775532 0.22327688
0.011196638 -0.016052434 0.21157411
0.0165869 -0.016101865 0.21377516
0.018306529 -0.016290471 0.19949515
0.024294075 -0.016262773 0.20909947
0.029888196 -0.016274774 0.21479243
0.031974528 -0.016243987 0.21997364
0.098327205 -0.01271509 0.60579497
0.089856006 -0.013860221 0.49631456
0.097112946 -0.013754502 0.51421219
0.096092053 -0.014117517 0.481509
0.12008963 -0.013855183 0.5331316
0.12654729 -0.01385704 0.54074574
0.11720421 -0.014612618 0.46398959
0.16002393 -0.015100634 0.47321144
0.21478832 -0.014049001 0.6302979
0.24447457 -0.013950628 0.67455643
0.27697435 -0.014557429 0.66105461
0.25447401 -0.015233549 0.5753535
0.25345427 -0.015333948 0.56542325
0.25880429 -0.01540641 0.56557721
0.22082232 -0.018396271 0.26063177
0.21647245 -0.018547667 0.24227504
0.21661344 -0.018603478 0.23760195
0.22460391 -0.01897352 0.21513407
-0.14464062 -0.0096970154 0.48153853
-0.061520822 -0.014053945 0.24420494
-0.056924365 -0.014109366 0.24485023
-0.057085723 -0.013892733 0.26075801
-0.042465605 -0.014638147 0.22056314
-0.033003759 -0.014918418 0.20955953
-0.0016391445 -0.015145959 0.22511564
0.0015817259 -0.015209836 0.22370653
0.0035056393 -0.015250022 0.22271346
0.0041837231 -0.015276483 0.2214509
0.027030293 -0.015627779 0.21901773
0.080907121 -0.0095416857 0.72637606
0.090055741 -0.010484238 0.66589677
0.10379248 -0.012998999 0.49349409
0.11177037 -0.012844547 0.51320863
0.11537981 -0.013445419 0.47235355
0.11659323 -0.013539678 0.46661609
0.15704177 -0.013050835 0.54472965
0.20944163 -0.013273514 0.58240831
0.27158108 -0.013171031 0.65428942
0.2732622 -0.01352069 0.63008308
0.25992319 -0.013874755 0.5900107
0.21995324 -0.017760981 0.2602807
0.22298345 -0.018355273 0.21931434
0.22330016 -0.018429821 0.21410981
-0.062307198 -0.013584338 0.23420274
-0.059966981 -0.013639484 0.23275132
-0.037503548 -0.014382305 0.20496838
-0.035933733 -0.014387731 0.20604016
0.016603211 -0.015030169 0.21207342
0.023091068 -0.015190021 0.2076003
0.024384784 -0.015143977 0.21175948
0.027967263 -0.01519591 0.21164468
0.037981238 -0.014503899 0.26561752
0.091379784 -0.0091191623 0.66333526
0.090784095 -0.011722604 0.49394307
0.098973669 -0.011853023 0.49292302
0.098483391 -0.012020179 0.48163486
0.11195763 -0.011706572 0.51420683
0.11276621 -0.012585945 0.45790756
0.11620487 -0.012439822 0.47050935
0.11708702 -0.012566007 0.46312454
0.1588577 -0.012029314 0.53585792
0.1734439 -0.013274532 0.46833876
0.23621 -0.011162022 0.66233915
0.24231586 -0.0123516 0.59072751
0.21597996 -0.017398911 0.23946445
0.21660221 -0.017422857 0.23847663
0.21869633 -0.017476847 0.23687859
0.22468494 -0.017808117 0.22083056
-0.061648 -0.013043809 0.231681
-0.039124653 -0.013734426 0.21013893
-0.03580213 -0.013753854 0.21171175
-0.0015664159 -0.014018924 0.22416712
0.032006353 -0.014562562 0.220038
0.072789028 -0.0070680841 0.68472934
0.076379865 -0.006668095 0.71067792
0.093655206 -0.010132901 0.52509952
0.10659669 -0.010554731 0.51127911
0.10762341 -0.010591257 0.51000637
0.1574416 -0.011220965 0.5140779
0.20708476 -0.010379194 0.60276008
0.23676875 -0.0096425852 0.66922414
0.2558288 -0.010879043 0.61343855
0.2702392 -0.010870762 0.62558275
0.21771505 -0.016576257 0.25442764
0.21815711 -0.016607037 0.25301215
0.21608607 -0.016793896 0.2405728
-0.066407882 -0.012327915 0.23478577
-0.05875086 -0.012467802 0.23314025
-0.046565827 -0.012906413 0.21932849
-0.045073111 -0.01294963 0.21818562
-0.036383487 -0.013260571 0.20843355
-0.0036161828 -0.013370807 0.22668399
0.0010451988 -0.013735534 0.21120024
0.0015561342 -0.013710558 0.21286669
0.028062999 -0.014071284 0.21356748
0.031993054 -0.014010112 0.21960944
0.092831604 -0.0085133109 0.54883564
0.095096149 -0.0098339636 0.48207977
0.10532204 -0.009266763 0.51893926
0.10806211 -0.0095758894 0.5049305
0.11384352 -0.010573684 0.45747492
0.11717983 -0.010506914 0.46337217
0.27211738 -0.0091495924 0.64698726
0.23081188 -0.012225511 0.45744708
0.22437166 -0.012827449 0.42155683
0.21831806 -0.015971068 0.25428975
0.21798511 -0.016037555 0.25060198
0.21702018 -0.016151829 0.24397631
0.21686521 -0.016305128 0.23592553
0.21648015 -0.01632922 0.23439324
-0.14763366 -0.010184352 0.25346422
-0.13528462 -0.0099329278 0.27353781
-0.1211412 -0.010006795 0.27949724
-0.1235764 -0.0095381755 0.29992864
-0.12271105 -0.009462161 0.30408239
-0.067569464 -0.011728181 0.23422843
-0.065247275 -0.011736661 0.23538055
-0.044485867 -0.01245408 0.2154686
0.032772318 -0.0072327759 0.51273978
0.037624717 -0.0073633105 0.50983256
0.089343265 -0.0039054733 0.70707315
0.095913544 -0.0075030895 0.5421468
0.10707498 -0.0087446729 0.49116156
0.12300295 -0.0094202105 0.46999553
0.12385046 -0.0094630243 0.46854648
0.14474067 -0.0095066903 0.48042771
0.1516778 -0.0090831723 0.50498968
0.1699387 -0.0085085221 0.54421782
0.23373097 -0.010988741 0.47005671
0.2361584 -0.011071912 0.46775937
0.23127455 -0.014925991 0.28312048
-0.14437674 -0.0094120549 0.26132828
-0.12077873 -0.0099275839 0.25358304
-0.1226797 -0.0087815914 0.30183035
-0.065481663 -0.011173211 0.23381856
0.029889949 -0.012998472 0.21366058
0.030589938 -0.012962 0.21566346
0.031168431 -0.012982526 0.215133
0.06999319 -0.0035369506 0.64623141
0.090346031 -0.0033343944 0.66745901
0.11279866 -0.006741418 0.53434044
0.15933363 -0.0072060972 0.54286855
0.16114047 -0.0088631669 0.47252986
0.16778421 -0.0086834123 0.48435915
0.19583449 -0.0072645675 0.56275177
0.2474343 -0.008788513 0.52871692
0.22290999 -0.010896028 0.42279434
0.21759951 -0.01499474 0.24280801
0.2240849 -0.015749931 0.21422979
-0.14893869 -0.0088640377 0.25461221
-0.14443226 -0.0087569915 0.2614353
-0.13496034 -0.0086490521 0.27111581
-0.13389215 -0.0086825797 0.27038929
-0.12484228 -0.0090797301 0.25973612
-0.12189902 -0.0091255149 0.25958708
-0.12384882 -0.0088489102 0.26948428
-0.1168607 -0.0082023554 0.29917866
-0.067547545 -0.01054156 0.23416415
-0.06441731 -0.010571319 0.23476264
-0.063555159 -0.010475997 0.23904416
-0.065389268 -0.010138543 0.25142622
-0.058767285 -0.010755827 0.23063576
-0.041702311 -0.011419633 0.21393362
0.032816749 -0.0049662297 0.51304495
0.050934076 -0.0048920615 0.52629906
0.089760706 -0.0012399928 0.69366783
0.090722963 -0.0018246472 0.6709547
0.088055678 -0.0058426834 0.50959027
0.089489453 -0.0058216024 0.51124489
0.11400758 -0.0045449673 0.57597625
0.10390465 -0.0064780083 0.49333233
0.10971861 -0.0069316966 0.4785887
0.11329067 -0.0074459706 0.46016109
0.11930828 -0.0074756439 0.46240222
0.15437011 -0.0067549781 0.51101255
0.24539822 -0.0075835339 0.52982086
0.24752787 -0.0075563276 0.53211325
0.224738 -0.0098085962 0.42955172
0.21845476 -0.014013337 0.2587041
0.21765952 -0.014474256 0.23991576
0.219018 -0.014490137 0.24005574
0.2157101 -0.014640828 0.2321799
0.22206496 -0.015173538 0.21459967
-0.15133469 -0.0082146553 0.25373062
-0.14625855 -0.0081380401 0.2592504
-0.12774494 -0.0082997372 0.26309359
-0.12390241 -0.0084140459 0.2609072
-0.12071645 -0.0074931094 0.29660344
-0.11960609 -0.0074148094 0.30008426
-0.065760605 -0.010019408 0.23245034
-0.054649655 -0.010026484 0.2380769
-0.04557395 -0.010785395 0.21486352
-0.042619772 -0.010812827 0.2154178
0.031253584 -0.011845781 0.21643238
0.061976545 -0.0035709969 0.53827256
0.086391032 -0.0022726371 0.59915608
0.087823741 -0.0047744457 0.50753444
0.1048168 -0.0041234093 0.54058236
0.11617953 -0.0065339128 0.45759583
0.15041614 -0.0054721348 0.51495028
0.23701024 -0.0077171121 0.47795367
0.21988711 -0.0094812708 0.40373445
0.21661401 -0.013993048 0.2353971
-0.14264363 -0.0074994541 0.26072749
-0.13550657 -0.0075035058 0.26413292
-0.13173071 -0.0074210395 0.2688477
-0.12500514 -0.0075222715 0.26870018
-0.11964389 -0.0075596478 0.27007505
-0.06556017 -0.0093824985 0.23413207
-0.064090684 -0.0093484325 0.23603745
-0.061887335 -0.0095506338 0.23016487
-0.066515826 -0.0088175982 0.25311914
-0.064788133 -0.008880307 0.25181779
-0.061347172 -0.0090079494 0.24912919
-0.023910884 -0.010938176 0.20122166
-0.0060066963 -0.010950468 0.20968893
0.051268332 -0.0024378002 0.53140622
0.093836106 -0.0026431659 0.54547006
0.093054689 -0.0036621748 0.50997651
0.10054345 -0.0032363213 0.52836663
0.10624318 -0.003193452 0.53267449
0.106117 -0.0043720994 0.49200359
0.11341371 -0.0053892308 0.46058574
0.16712798 -0.0049133007 0.50365734
0.23693208 -0.006591138 0.48051861
0.2367406 -0.006684606 0.47720391
0.21915898 -0.0080644982 0.42093256
0.21970254 -0.0084521109 0.40784925
-0.16009025 -0.0065106428 0.26349324
-0.15839714 -0.0065485011 0.26306248
-0.15014593 -0.006943461 0.2541672
-0.14342904 -0.0068338001 0.26084557
-0.12127839 -0.0068571582 0.27044299
-0.11808711 -0.0060455422 0.29814035
-0.11639336 -0.0060777888 0.29789019
-0.066900335 -0.00876588 0.23422752
-0.0059588077 -0.010423835 0.20917523
0.026739394 -0.010908707 0.20880236
0.090282679 0.0028162934 0.68164772
0.085021287 -8.2904153e-05 0.58558059
0.096250311 -0.002423326 0.51526058
0.098213658 -0.0022893422 0.52050358
0.1077056 -0.0014780858 0.55113232
0.15882713 -0.0048023458 0.46769193
0.2222365 -0.0076777516 0.40448266
0.22108324 -0.013487438 0.21636246
-0.14896533 -0.0063068462 0.25463426
-0.14358266 -0.006120963 0.26265782
-0.13427916 -0.0061908648 0.26464143
-0.13346909 -0.0061002802 0.26775107
-0.065133773 -0.008171157 0.23501027
-0.021021038 -0.0099173868 0.20143574
-0.017331148 -0.0098689683 0.20453632
-0.0099416189 -0.0098892171 0.20718531
-0.0013192267 -0.01017621 0.20227224
0.024297602 -0.010430605 0.20585458
0.031238465 -0.010210995 0.21559125
0.032660607 -0.010107026 0.21937717
0.08296898 -0.00063644542 0.52929986
0.09516947 5.5133227e-05 0.55569613
0.092028864 -0.0013647007 0.5111751
0.098501593 -0.0010888189 0.52241546
0.099676348 -0.0011240271 0.52186346
0.11147098 -0.00092138484 0.53322834
0.11159624 -0.0023763462 0.48908079
0.16709425 -0.0017651935 0.53215158
0.18943377 -0.001232528 0.55819827
0.21380609 -0.0071430602 0.38939863
0.21709982 -0.012332499 0.23320007
-0.13317329 -0.0054060332 0.26874477
-0.12312639 -0.0055258414 0.26951334
-0.1192833 -0.0056577283 0.26733923
-0.060886659 -0.0078519769 0.22884169
-0.022863504 -0.0093384599 0.20212001
-0.0084130112 -0.0092730308 0.21004492
-0.0071298713 -0.0093263965 0.20905131
-0.00073871721 -0.0096519766 0.2023885
0.030592274 -0.0096838763 0.21458739
0.091144107 0.00092278793 0.54417408
0.094737694 0.0011457837 0.55207378
0.10340515 0.0012134921 0.55764472
0.10982049 -0.0013988605 0.48539728
0.11221278 -0.002327743 0.45975459
0.11438661 -0.0023707305 0.45943162
0.1675656 -0.00037186485 0.53902608
0.16216815 -0.0013914136 0.50752264
0.19200158 -0.00023494814 0.55318153
0.19574808 9.8700793e-06 0.56177282
0.23401785 -0.0034446812 0.47870091
0.23453769 -0.003506569 0.47714338
0.22330913 -0.0056342045 0.41141519
0.22386949 -0.012533847 0.21374042
-0.15269203 -0.0049122302 0.25629875
-0.14711909 -0.0050343839 0.25519809
-0.14467159 -0.0049329759 0.25892681
-0.14104487 -0.0044098767 0.27458194
-0.12383642 -0.0048514972 0.26943469
-0.12310103 -0.0048617674 0.2694481
-0.11964364 -0.0050241817 0.26641136
-0.1181 -0.0050537135 0.26622435
-0.069921143 -0.0066234176 0.24275722
-0.017754739 -0.0088397395 0.20331092
-0.016329454 -0.0083813556 0.2163326
-0.0085976869 -0.0086477548 0.21217149
-0.0046387245 -0.0088675478 0.20777684
-0.001852914 -0.0091300746 0.20175423
0.031237345 -0.0091195572 0.21521021
0.03182919 -0.0091373613 0.21496412
0.033088561 -0.0091236439 0.215837
0.092640504 0.0086314613 0.72190267
0.087400451 0.0050176377 0.62163937
0.094312742 0.00079012301 0.50953847
0.11188678 -0.00042022145 0.48365298
0.18673879 0.0035739907 0.62196094
0.15834165 -0.0011224345 0.48306835
0.26177314 0.0025920551 0.62515217
0.2145384 -0.005497972 0.38656569
0.21621054 -0.01135469 0.22811922
0.21747723 -0.011370547 0.22819228
-0.15661485 -0.0041873124 0.25692332
-0.14856221 -0.0044794469 0.25244129
-0.14811075 -0.0044666966 0.25294283
-0.14747389 -0.0044705234 0.25308493
-0.14723276 -0.0044383463 0.2540077
-0.14474837 -0.0040469128 0.2650511
-0.13734223 -0.0040367707 0.26812372
-0.12454326 -0.0042460593 0.26758179
-0.12004504 -0.0043892874 0.26559454
-0.026246697 -0.0082570305 0.20140058
-0.014792263 -0.0083608208 0.20307066
-0.011881451 -0.0081773065 0.2089096
-0.0024282865 -0.0085931793 0.20176789
-0.00070535624 -0.0086069638 0.20206729
0.00043415453 -0.0086089009 0.2024498
0.012469642 -0.0083439881 0.21385288
0.024296219 -0.0088649355 0.20490074
0.11094785 0.0015405553 0.50628537
0.25710356 0.0037966096 0.61997986
0.23454095 -0.0032290109 0.43013346
0.2175983 -0.010800507 0.22833565
0.22334099 -0.011481037 0.21295483
-0.15511824 -0.0036250134 0.25544631
-0.15491824 -0.0035325205 0.25779068
-0.14501229 -0.0037235485 0.25669158
-0.12031352 -0.0037722006 0.26446098
-0.064747632 -0.0057484396 0.23607105
-0.061622579 -0.0060738306 0.22921066
-0.060969274 -0.006084458 0.22918756
-0.06029842 -0.0059952568 0.23162229
-0.040404383 -0.0073767612 0.20489885
-0.040023278 -0.0073407036 0.20592424
-0.025731385 -0.0077171628 0.20186214
-0.017309917 -0.0077328798 0.20453244
-0.013473823 -0.0079012737 0.20178565
0.00045027488 -0.0080864904 0.20228972
0.012479519 -0.0077991406 0.21371451
0.026102133 -0.0083052358 0.20622316
0.033112653 -0.0080137858 0.21592815
0.035633415 -0.0079925461 0.21736477
0.084682383 0.0045744381 0.54392159
0.096417308 0.0032501314 0.51564324
-0.15160291 -0.0030306603 0.25555745
-0.13503152 -0.0028882583 0.26465899
-0.12993959 -0.0033073057 0.25660461
-0.12602673 -0.003043605 0.26414785
-0.12431736 -0.0030202898 0.26528972
-0.069976717 -0.004880948 0.240558
-0.0611187 -0.0054723965 0.22977154
-0.060004026 -0.005125267 0.23829654
-0.051484749 -0.0063963989 0.21145622
-0.039476909 -0.0067995237 0.20617864
-0.0013009179 -0.0075235586 0.20247725
0.0082298499 -0.0071508046 0.21453105
0.016711611 -0.0079123517 0.19962525
0.017860668 -0.0079146167 0.19997074
0.083339393 0.0057580387 0.5433262
0.19056861 0.0047499863 0.55697674
0.18438716 0.0035098295 0.52574897
0.25970581 0.0065433034 0.62306798
0.26095283 0.0065007457 0.62250167
-0.14075132 -0.0018044045 0.2722868
-0.12455916 -0.0024093352 0.26412854
-0.12086575 -0.0024690523 0.26402354
-0.11948542 -0.0024809923 0.26421511
-0.068329781 -0.0043462231 0.23947111
-0.023420691 -0.0066817463 0.20209485
-0.015573331 -0.006674835 0.20487133
0.0082403729 -0.0066030114 0.21443209
0.0088689644 -0.0066481964 0.21362871
0.021921821 -0.0073742494 0.20170659
0.033137899 -0.0069021741 0.2160356
0.23652261 0.0010519918 0.46230125
0.23742312 0.0010163805 0.46180528
0.21358052 -0.0015984116 0.39521098
-0.15332282 -0.001759895 0.254729
-0.14305009 -0.0012395839 0.26920676
-0.12268721 -0.0017450411 0.26488805
-0.063350782 -0.0042157699 0.23086172
-0.045769267 -0.0056792595 0.20506638
-0.041787382 -0.0057010856 0.20587593
-0.017618699 -0.0060031493 0.20714784
-0.016459431 -0.0060090492 0.2073945
-0.015482423 -0.0061749425 0.20414364
-0.0081992559 -0.0064032841 0.20157693
-0.0024508412 -0.0064488011 0.20244551
0.012647414 -0.0066122948 0.20378223
0.034417093 -0.0063253837 0.21693857
0.236884 0.0021050503 0.46309608
0.2380302 0.0020920828 0.46318701
-0.13351212 -0.0010202699 0.26290447
-0.068884097 -0.0031461082 0.23906833
-0.045542624 -0.0050657215 0.20670672
-0.043423407 -0.0051701544 0.20521007
-0.0097574592 -0.0053440388 0.21204452
-0.0081881201 -0.0058779451 0.20151913
-0.0070136082 -0.0059023071 0.20137997
-0.0012660677 -0.0059469524 0.20223902
0.02422869 -0.0063891313 0.2010106
0.028984426 -0.0049216887 0.23274443
0.031676944 -0.005452177 0.22263782
0.092265837 0.0081170034 0.52121466
0.098495953 0.0075843902 0.51215863
0.099504478 0.0074937027 0.51060098
-0.15501785 -0.00049656653 0.25387084
-0.044496223 -0.0045064557 0.20738961
-0.023714729 -0.0049815336 0.2041788
-0.019466611 -0.0050937645 0.20322359
-0.015302305 -0.005182819 0.20270194
0.014416221 -0.0056002857 0.2033035
0.017330458 -0.0055581029 0.20500977
0.018509217 -0.0055164946 0.20618679
0.019066466 -0.0056958334 0.20279814
0.019645292 -0.0057114083 0.20266213
0.020241609 -0.0056589153 0.203881
0.032087289 -0.0056496575 0.20760354
0.09982229 0.0082888342 0.50417459
0.10889918 0.0095375683 0.53164285
0.19147213 0.0097122286 0.55977362
0.23741989 0.004200852 0.46423453
0.23835093 0.0041649994 0.4638024
-0.060956459 -0.0021721185 0.23684855
-0.048723128 -0.0033405891 0.21807833
-0.046776995 -0.0035347033 0.21493451
-0.043908842 -0.0039699543 0.20745519
-0.041974436 -0.0041790279 0.20402174
-0.040713206 -0.0042178105 0.20364547
-0.03846731 -0.0040670065 0.20717366
-0.024433041 -0.0043893075 0.20507343
-0.010792458 -0.0043165921 0.21040148
-0.005340382 -0.0048193061 0.20237872
0.020865427 -0.0050250483 0.20601913
0.18560895 0.011417139 0.56744075
-0.068061247 -0.0013721558 0.23853503
-0.053609621 -0.0020018285 0.23098594
-0.023669755 -0.0039262883 0.20393834
-0.01389174 -0.0042525874 0.20066619
-0.012859722 -0.0042041801 0.20184578
-0.009064191 -0.0037498707 0.21126652
0.00058793044 -0.004468509 0.20073955
0.013234524 -0.0043784813 0.2059309
0.019119432 -0.0044168853 0.20686887
0.030359214 -0.0045243436 0.20803328
0.092650145 0.011681021 0.52367681
0.11741215 0.014245027 0.5777849
0.18287943 0.012671373 0.56712162
0.2209653 -0.0047143316 0.25781137
-0.15421636 0.0013980817 0.25367883
-0.06901174 -0.000830748 0.23716165
-0.045381069 -0.0026392266 0.21143278
-0.040612374 -0.0030161315 0.20602842
-0.019287605 -0.0035688302 0.20198616
-0.018359937 -0.0034776651 0.20385663
-0.013348446 -0.0037121631 0.20104776
-0.010980012 -0.0037728397 0.20061174
-0.0092365695 -0.0038018385 0.20056771
0.013250268 -0.0038801786 0.20526846
0.017941954 -0.0039411657 0.20545511
0.019126127 -0.0038883185 0.20671478
0.023264 -0.0039115758 0.20742291
0.027353579 -0.004029158 0.20644213
0.029922722 -0.0013568552 0.25461385
0.031489544 -0.0040644049 0.20693468
0.036035039 -0.0037801119 0.2132179
0.11518356 0.015209531 0.57202846
0.12599719 0.016423754 0.59653032
0.23773545 0.0074551785 0.46746066
0.23853981 0.0074002533 0.46670336
0.21596807 -0.0046405396 0.24667107
-0.1540326 0.002013603 0.25332355
-0.048497733 -0.0018667573 0.21443047
-0.043504994 -0.0024543044 0.20565484
-0.042924706 -0.0024592124 0.20572172
-0.037118297 -0.001157816 0.22959542
-0.018716693 -0.0030393824 0.20212255
-0.005239191 -0.0032903771 0.20135516
-0.0040310649 -0.003344524 0.20074238
-0.0028630437 -0.0033701421 0.20061065
0.015607085 -0.0034290995 0.20445235
0.01972729 -0.0033395621 0.20707275
0.020325379 -0.0033117924 0.2077067
0.035969287 -0.0032940025 0.21212369
0.082592919 0.020325385 0.62995523
0.085827783 0.021330897 0.6480723
0.097963631 0.013474894 0.51636291
0.23658405 0.008495925 0.46730092
0.21789341 -0.0038309093 0.25071999
-0.1562469 0.0026944224 0.25346339
-0.068480708 0.00039474797 0.23766118
-0.06789054 0.00054936786 0.2403807
-0.059006117 -0.00099656079 0.21696369
-0.043649226 -0.0018726713 0.20632793
-0.038054518 -0.0016620622 0.21125548
-0.035141297 -0.00083667447 0.22571352
-0.028539388 -0.0017426471 0.21234567
-0.0034628946 -0.0028123318 0.20097569
-0.0012669706 -0.0027341377 0.20283508
-0.00068615808 -0.0027406788 0.20287524
-7.2752278e-05 -0.0027793418 0.20238823
0.025688382 -0.0027841737 0.20888595
0.028817356 -0.0026021071 0.21270899
0.18118331 0.021983648 0.66010368
0.24323842 0.023032442 0.69337183
0.25997114 0.018040447 0.6147024
0.24287555 0.0084432475 0.45088017
0.21620344 -0.0029111719 0.25541565
-0.15823923 0.0033470062 0.25318846
-0.059555266 -0.0004424621 0.2167013
-0.058396269 -0.00029243104 0.21940365
-0.058161888 -4.8760132e-05 0.22338381
-0.055583823 -0.0002564663 0.22068132
-0.053206962 -0.00025758569 0.22125274
-0.052862097 -0.00018870531 0.22244747
-0.048436552 -0.00076999952 0.21419057
-0.044318262 -0.0013008208 0.20667005
-0.043775301 -0.00094766339 0.21248797
-0.042389419 -0.0008368725 0.21461526
-0.041867185 -0.00081720174 0.21506137
-0.034376428 -0.00031516736 0.22500044
-0.021145388 -0.001895601 0.20285055
-0.019987037 -0.0019071135 0.20295277
-0.0057801586 -0.0022464425 0.2010182
-0.0013148848 -0.0021511579 0.20366032
0.020337256 -0.0022552148 0.20736188
0.020937618 -0.0022242358 0.20800883
0.029981593 -0.0021316414 0.21174398
0.10789179 0.016592458 0.53242391
0.10508127 0.013123441 0.47589824
0.24280456 0.016390806 0.56267047
-0.15899888 0.0040023807 0.25326785
-0.069583967 0.0015662077 0.23685858
-0.068582229 0.0016264869 0.23804185
-0.049749009 -0.00016979172 0.21456333
-0.043866895 -0.00072313484 0.207351
-0.040418267 -0.00035085145 0.21399234
-0.026409799 -0.00079752353 0.21040806
-0.019988121 -0.0013718844 0.20299715
-0.0063289404 -0.001729405 0.20071857
-0.00461426 -0.001736403 0.20102431
0.015047604 -0.0018442005 0.20409268
0.031474236 -0.001977636 0.20597972
0.035607804 -0.0014481079 0.21524154
0.036256928 -0.0014173824 0.21587762
0.22117026 -0.0023796461 0.24554285
-0.068082809 0.002263448 0.23866093
-0.058118481 0.00076753361 0.21835423
-0.056885649 0.00075237517 0.21841428
-0.019977992 -0.00084200356 0.20295942
-0.017054277 -0.00088383688 0.20301364
-0.0080615021 -0.0011757859 0.20070989
-0.0018030693 -0.0011601885 0.20241934
0.016807644 -0.0013190884 0.20439391
0.020949595 -0.001164115 0.20771572
0.02273587 -0.0011523096 0.20831491
0.026321502 -0.0011435252 0.20929182
0.030301942 -0.0014361498 0.2057981
0.030890627 -0.001441617 0.20585367
0.032680433 -0.0014324436 0.20641319
0.21416996 0.0093481764 0.41238365
0.24061546 0.011616395 0.45295629
0.24129279 0.011543134 0.45200583
-0.055113982 0.0018426273 0.22654839
-0.01764093 -0.00033914123 0.20305927
-0.012357363 -0.00042824878 0.2029615
-0.0081000952 -0.00061482424 0.2011935
-0.0046155816 -0.00066905009 0.20119652
-0.0034111643 -0.00072761643 0.20061137
-0.0011743566 -0.00068068155 0.20181479
0.01915721 -0.00079339568 0.20482372
0.22256082 -0.0013271357 0.24365661
-0.16138928 0.0061694388 0.25630775
-0.055198144 0.001909114 0.21917669
-0.050947271 0.0015130222 0.21446571
-0.045565333 0.0009034687 0.20695512
-0.022975123 0.00030571633 0.20346908
-0.016261922 0.00039712706 0.20627874
-0.015888175 0.00052194326 0.20814756
-0.011665161 2.5242996e-05 0.20199175
-0.0099099427 -6.4203332e-06 0.20193151
-0.0058836807 -2.5683776e-05 0.20255782
0.015069024 -0.00022406042 0.20441435
0.021563482 -7.0914692e-05 0.20805827
0.12465347 0.026043054 0.60452217
0.2394646 0.013270834 0.44761938
0.22351952 -0.00050766859 0.24704345
0.22380073 -0.0005512223 0.24648398
-0.055597864 0.0024179642 0.21828789
-0.051047355 0.0021026728 0.21489736
-0.011103469 0.00056587247 0.20225713
-0.0075560333 0.00047281952 0.20173891
0.020359123 0.00033664328 0.20594995
0.023953054 0.00047014517 0.20859298
0.029733414 0.00016404375 0.20559916
0.031512141 0.00016572901 0.20601119
0.032099489 0.00015798397 0.20603241
0.081381969 0.026690774 0.58587581
0.12496944 0.027475063 0.60631841
0.18400346 0.029330125 0.64503288
0.25361577 0.023898451 0.58470416
0.22422801 -5.1923816e-05 0.24513219
-0.16138797 0.0073619192 0.2549786
-0.065487973 0.0043033739 0.23405671
-0.051600579 0.0026509736 0.2146474
-0.050502233 0.0026750807 0.21520953
-0.049966581 0.0026921742 0.21555611
-0.018848678 0.0009791007 0.1990077
-0.012718084 0.0010328268 0.20104553
-0.0021642563 0.00076031574 0.1996104
0.01800813 0.00079116743 0.20434093
0.023967065 0.0010267845 0.20880471
0.027646154 0.0011959635 0.21188264
0.031010175 0.00081608939 0.20745715
0.036495481 0.0022291881 0.22776589
0.15480252 0.025804276 0.57230794
0.18840545 0.031064004 0.65071785
0.2409693 0.02977943 0.64455658
0.24847294 0.029665221 0.64461428
0.23901464 0.015179752 0.44642836
0.22898994 0.0029165051 0.27821556
0.22044876 0.00032582105 0.24130733
-0.05713322 0.0042302301 0.22697131
-0.024872171 0.0020110642 0.20443568
0.016847044 0.0013623344 0.20459694
0.017431905 0.0013431745 0.2044663
0.020979267 0.0014769831 0.20697422
0.02833439 0.0018788632 0.21381268
0.082874909 0.027250409 0.55994648
0.18736601 0.025065383 0.55295932
-0.1616389 0.0084845321 0.25282788
-0.045328613 0.0031986686 0.20863089
-0.023382101 0.0026762185 0.20639992
-0.0026663381 0.0017513749 0.19874154
0.019202845 0.0019208806 0.20539448
0.022804033 0.0021516406 0.20909993
0.026365271 0.0020905351 0.20904216
0.029271454 0.0041542682 0.23617989
0.18246554 0.025313867 0.53966641
0.24288185 0.037395906 0.70742142
0.24778448 0.03261083 0.64687949
0.22490694 0.02120487 0.49549803
0.21313226 0.013076008 0.38853645
0.22894469 0.0043259296 0.27922839
-0.15449864 0.0086893663 0.24881205
-0.066709891 0.0062782499 0.2361411
-0.058853291 0.0047736969 0.21883781
-0.050047603 0.0044021788 0.21593991
-0.022448676 0.0030151643 0.20406459
0.019793499 0.0024180464 0.20503305
0.026385037 0.0026575658 0.20935762
0.032622881 0.0021576893 0.20433539
0.080316126 0.029794227 0.56063622
0.18469287 0.03354428 0.628591
0.18568408 0.033371225 0.62661797
0.1764968 0.027506107 0.55119002
0.18541484 0.026920637 0.54562998
0.17755224 0.023042446 0.49539706
0.24177381 0.037298907 0.68713057
0.24090219 0.036658965 0.67892742
0.24262255 0.035056602 0.65916741
0.24446562 0.033959609 0.64577216
0.22729564 0.022765307 0.5018819
0.23156582 0.019326549 0.45959172
-0.15493387 0.0091805663 0.24701762
-0.15408494 0.0092501296 0.24803571
-0.056646086 0.0058120242 0.22504897
-0.05576526 0.0059301299 0.22666873
-0.052397873 0.0049594203 0.21544072
-0.045914203 0.0049695452 0.21683678
0.020378327 0.0028892187 0.20436774
0.03049528 0.0030420572 0.20822498
0.18879187 0.036208417 0.64545971
0.17560898 0.028431311 0.54763055
0.24201402 0.035126127 0.64264858
0.25150916 0.030033547 0.58214444
0.2525163 0.029937336 0.58116406
0.23144007 0.020316377 0.45920452
0.21719266 0.016482638 0.40945861
0.21778449 0.0020911735 0.23332775
-0.15738365 0.010007256 0.24892992
-0.1553753 0.0097748525 0.24653682
-0.068671502 0.0073066051 0.23369221
0.01921529 0.0034232838 0.20414938
0.025852911 0.0038650252 0.21070991
0.032404598 0.0091733756 0.27546
0.033007104 0.0029190339 0.20077114
0.035992298 0.0044392212 0.21952772
0.10054772 0.022380987 0.44653729
0.19400653 0.032598417 0.58671719
0.17917153 0.026737219 0.51376128
0.16097622 0.020620117 0.43709853
0.24047488 0.039860018 0.68250823
0.24152319 0.039695214 0.68073845
0.23936044 0.036227267 0.63884383
-0.15489905 0.010318263 0.2456551
-0.15275536 0.010274703 0.24555118
-0.069122076 0.0080475211 0.23529801
-0.067738108 0.0080069592 0.23508456
-0.064073138 0.0074173729 0.22888497
-0.051836547 0.006091536 0.21569857
0.019799564 0.0038890094 0.20347014
0.020382013 0.0038790766 0.20346408
0.030931238 0.0098399809 0.27512178
0.031733513 0.0041621104 0.20891349
0.17623807 0.026277602 0.49464497
0.23361388 0.036117338 0.62046945
0.19116698 0.023149364 0.46090052
0.19624922 0.023228746 0.46278715
0.21899487 0.0054613985 0.25942507
-0.15515569 0.010987762 0.24611719
-0.068990275 0.0088116275 0.23720218
-0.068016261 0.0086988509 0.23609483
-0.054815575 0.0066614817 0.21525864
-0.051268298 0.006661918 0.21591945
-0.04535858 0.0069296448 0.22007313
-0.044274613 0.0069826781 0.22087899
0.030827578 0.010272156 0.27236924
0.084037915 0.04032544 0.62561953
0.19709685 0.023323346 0.45227581
0.23705909 0.023284854 0.45923316
0.23912865 0.023223411 0.45891464
0.24125965 0.023174323 0.45874789
-0.068928815 0.0093949661 0.23698987
-0.066606373 0.0092509761 0.23580246
-0.05400328 0.0071389573 0.21448755
-0.046641417 0.0075321859 0.22022091
0.015729493 0.0051631164 0.20507744
0.026615176 0.0058416924 0.21463998
0.063638426 0.029756507 0.48865935
0.090701714 0.038611405 0.59254688
0.098204665 0.024104336 0.43176758
0.20878586 0.031395752 0.53335947
0.25075185 0.03767921 0.61121523
0.21133308 0.026872916 0.48327127
0.20996088 0.025688114 0.46978045
0.23876217 0.023025349 0.44525307
-0.057339795 0.0082844822 0.22031723
-0.048670892 0.0081952373 0.22088814
0.030118305 0.010013855 0.25484428
0.038603611 0.0075485674 0.22939382
0.039614651 0.0079843262 0.2343403
0.065503731 0.031508461 0.49626437
0.097271703 0.027041694 0.45307839
0.17795385 0.029289631 0.49206743
0.19762421 0.024051972 0.43829101
0.23126863 0.023441326 0.43761754
-0.050390657 0.0084768338 0.21749386
-0.041639991 0.0077534909 0.21128196
0.017498428 0.0060115573 0.20300108
0.031190932 0.0063637556 0.20917489
0.035118576 0.0077213543 0.22440258
0.061728779 0.031098368 0.47940916
0.065902293 0.033012457 0.50063848
0.068229981 0.03287302 0.49955413
0.096892253 0.026526025 0.43661293
0.24689797 0.038556989 0.5917623
-0.052692112 0.0085268561 0.21170565
-0.05168467 0.0088363057 0.21512499
-0.044707328 0.0083689475 0.21142678
0.022101287 0.0061868527 0.20005843
0.037443247 0.0080062365 0.22178757
0.060443584 0.032027118 0.47771233
0.082703844 0.041636545 0.58234555
0.096358493 0.028498773 0.4468962
0.23809798 0.02680596 0.45358044
-0.063684046 0.011031219 0.22989923
-0.060051885 0.010585565 0.22593457
-0.053550266 0.0094329109 0.21518995
-0.045559209 0.009043457 0.21254271
-0.043899562 0.0090945167 0.21334815
-0.04189717 0.0089840638 0.21255274
0.023302061 0.0068588378 0.20176619
0.029996896 0.0086704642 0.22152188
0.030626096 0.0086783441 0.2217093
0.035960976 0.0082338192 0.21804535
0.061501395 0.034335978 0.49066144
0.071833625 0.036198303 0.51155555
0.085529841 0.040435694 0.55743152
0.088289894 0.040471382 0.55826646
0.23133008 0.026609547 0.44004762
0.22726999 0.0102741 0.27145901
0.23709416 0.010648159 0.27696943
0.2222185 0.007833303 0.24551508
-0.061200608 0.010897689 0.22303237
-0.050291553 0.010129223 0.21710916
-0.049109068 0.010406901 0.2201038
-0.045293737 0.0097514288 0.21413614
0.019783169 0.0070069921 0.1973421
0.023911901 0.0074616559 0.20261104
0.22301292 0.02529083 0.41547185
0.21749966 0.0090951519 0.25136885
0.23344371 0.010690887 0.27010679
0.23085988 0.0099102221 0.26180992
0.22159086 0.0082498835 0.24353454
-0.069249697 0.012900196 0.23580746
-0.056300171 0.012262908 0.23163681
-0.053225644 0.01173401 0.22691593
-0.047147024 0.010345471 0.21419431
-0.044946335 0.010429391 0.21538427
0.036891032 0.0097725131 0.22233176
0.095759235 0.036588039 0.4969613
0.097309068 0.032075867 0.45263213
0.21905452 0.025110625 0.40379974
0.22728458 0.011459923 0.27026936
0.23715013 0.011974352 0.27697259
0.22043289 0.0088840844 0.24369274
-0.057546604 0.012581599 0.22878288
-0.056962378 0.01259823 0.22903852
0.019268744 0.0084739253 0.20138413
0.019803856 0.0080904132 0.19775239
