# .PCD v0.7 - Point Cloud Data file format
VERSION 0.7
FIELDS x y z
SIZE 4 4 4
TYPE F F F
COUNT 1 1 1
WIDTH 1364
HEIGHT 1
VIEWPOINT 0 0 0 1 0 0 0
POINTS 1364
DATA ascii
-0.17829238 -0.21301034 0.45123792
-0.15295511 -0.23387411 0.49248472
-0.14647542 -0.25366619 0.53079444
-0.13745379 -0.24347997 0.51165414
-0.13125278 -0.23872949 0.50282115
-0.12310781 -0.22721349 0.481087
-0.12225538 -0.22953846 0.48559114
-0.12575071 -0.24662539 0.51824045
-0.10449449 -0.2444963 0.51514369
-0.089066684 -0.23751464 0.50245655
0.25907758 -0.27589571 0.5924015
0.26039559 -0.27438495 0.58956218
0.26948839 -0.26836303 0.57842243
0.26916382 -0.26669997 0.57521367
0.11645107 -0.059810244 0.1707959
0.098468229 -0.043312803 0.13827662
-0.076238997 -0.062210988 0.16696052
-0.19409628 -0.21832778 0.4623692
-0.1807424 -0.21431504 0.45526344
-0.18242243 -0.21781722 0.46193567
-0.17372981 -0.21411568 0.45521039
-0.16530272 -0.20929652 0.4463172
-0.15224077 -0.23852687 0.50328571
-0.14957193 -0.23719108 0.50083631
-0.13487521 -0.23908697 0.50518501
-0.12588437 -0.2388927 0.50523484
-0.11070269 -0.24358167 0.5149911
-0.10341955 -0.24619222 0.52036768
0.23928338 -0.26954347 0.58155918
0.25362512 -0.27191767 0.58681345
0.26014867 -0.27160859 0.58652562
0.26318872 -0.2677502 0.57923019
-0.17707419 -0.21189211 0.45239615
-0.1290224 -0.24722482 0.52307552
-0.11874896 -0.24224457 0.5139271
-0.11289755 -0.24555373 0.52061093
-0.048081927 -0.25623479 0.5443787
0.12809506 -0.27097234 0.58131367
0.13906452 -0.27467865 0.5890106
0.14014709 -0.26946053 0.57896316
0.24654147 -0.27052876 0.58610982
0.2579377 -0.27106822 0.5876981
0.30275062 -0.26913899 0.58610409
0.11495072 -0.058138274 0.16875358
0.097901575 -0.04286005 0.13836955
-0.19087546 -0.21347302 0.45644471
-0.19088098 -0.22030148 0.46971333
-0.18385617 -0.21324816 0.45634675
-0.17508377 -0.21422955 0.45867747
-0.14543676 -0.21597968 0.46351016
-0.14681838 -0.22161169 0.47438714
-0.14881419 -0.25086191 0.53112745
-0.13321944 -0.23763305 0.50617498
-0.1246106 -0.24785012 0.52644408
0.066152975 -0.26576397 0.5704658
0.067527778 -0.26626703 0.57150984
0.13844815 -0.27498233 0.59186995
0.19516705 -0.2800166 0.6043914
0.20196898 -0.26912475 0.58355534
0.20248467 -0.26806638 0.58152407
0.2128709 -0.26778403 0.58147669
0.24563356 -0.26846382 0.58438033
0.2518521 -0.26644453 0.58075696
0.27668545 -0.27086645 0.59054834
0.1155621 -0.05753224 0.16823217
-0.07678806 -0.060623843 0.1654937
-0.20455889 -0.21784438 0.4659647
-0.1808577 -0.21061526 0.45301965
-0.17958201 -0.21119945 0.45422173
-0.17377014 -0.20905435 0.45032078
-0.16976097 -0.23102747 0.49338269
-0.14381239 -0.21852319 0.47025642
-0.15144129 -0.25699458 0.54493511
-0.12572414 -0.23531258 0.50389349
-0.090540007 -0.24834862 0.53104371
-0.081602432 -0.23498623 0.50541216
0.062492803 -0.26500696 0.57101727
0.14172652 -0.27518463 0.59474301
0.19654548 -0.28087047 0.60851306
0.19979371 -0.26696301 0.58154041
0.20361505 -0.26507285 0.57803982
0.20851651 -0.26794532 0.58388305
0.25234899 -0.26589632 0.58202708
0.11567104 -0.057292085 0.16839582
0.099410862 -0.042506367 0.13875689
-0.20244326 -0.21541156 0.46300358
-0.20000309 -0.21667288 0.46559504
-0.18101352 -0.20993035 0.453327
-0.17353749 -0.20902547 0.45192397
-0.17411323 -0.2368678 0.50642854
-0.17042884 -0.23257762 0.4982079
-0.16740103 -0.22927962 0.49189767
-0.14521679 -0.20199135 0.43954623
-0.1370344 -0.21014126 0.45591369
-0.14003168 -0.24549225 0.52500463
-0.083300143 -0.23630303 0.50980943
0.072530717 -0.26881102 0.58118027
0.080799513 -0.2709997 0.58587605
0.13394299 -0.27186775 0.59020221
0.14190045 -0.27946287 0.6054706
0.1432346 -0.27944526 0.60550261
0.20489094 -0.26397949 0.57825762
0.23548007 -0.27012515 0.59180617
0.25555533 -0.26534146 0.58342874
0.2582067 -0.26388916 0.58071476
0.25910649 -0.26342902 0.57985812
0.26100653 -0.26262069 0.57836866
0.11526922 -0.056770802 0.16798511
0.098726571 -0.042236168 0.13869968
0.10085314 -0.042199008 0.13873209
0.10098911 -0.042111192 0.13856687
-0.077106491 -0.060416114 0.16616981
-0.19644332 -0.20421174 0.44297513
-0.20069057 -0.21661261 0.46714851
-0.20074429 -0.21886177 0.47156867
-0.19545589 -0.21441399 0.46308672
-0.17033362 -0.23292947 0.50075203
-0.15003102 -0.24203692 0.51967609
-0.082813166 -0.24090721 0.520814
0.065892138 -0.26663339 0.57883561
0.07189545 -0.26998085 0.58571845
0.073123023 -0.26986191 0.58554554
0.13424183 -0.27398393 0.59670651
0.14003356 -0.27744058 0.60379273
0.14711526 -0.27812624 0.60549533
0.16733071 -0.26343215 0.57760978
0.18417451 -0.26891026 0.58922434
0.19457616 -0.26674545 0.58548707
0.19553575 -0.26274502 0.57766885
0.20408861 -0.26192269 0.5764789
0.11566725 -0.057328772 0.16973284
0.11538363 -0.056958225 0.16899008
-0.19989294 -0.21471421 0.46515986
-0.13655634 -0.2027564 0.44475165
-0.13690203 -0.20490065 0.44896826
-0.13629013 -0.20535305 0.44989222
-0.14227037 -0.2228483 0.48413181
0.084342249 -0.27587685 0.60028428
0.085904293 -0.27663204 0.60185403
0.13302921 -0.27843341 0.60779268
0.16958186 -0.26786432 0.58877313
0.25049093 -0.26643953 0.59004945
0.26452219 -0.26262885 0.58323461
-0.19923119 -0.20680326 0.45122916
-0.20459498 -0.21635143 0.46988228
-0.20895644 -0.22606401 0.48891306
-0.16265644 -0.21326387 0.46590576
-0.14238639 -0.22206379 0.48438653
-0.15242517 -0.24629907 0.5319159
-0.14188883 -0.24180385 0.52354336
-0.13803002 -0.24017672 0.52051491
-0.13462153 -0.23730576 0.5149982
-0.12936613 -0.23251858 0.50577706
0.051534403 -0.27846318 0.60610223
0.051933955 -0.26905447 0.58747131
0.066836752 -0.26821712 0.58657295
0.074603654 -0.27287993 0.59621346
0.15643406 -0.26473975 0.58425963
0.16275652 -0.26440239 0.58391452
0.16492631 -0.26574925 0.58669519
0.19199845 -0.27403009 0.60449451
0.19490844 -0.27426785 0.60511428
0.19486825 -0.27233246 0.60127616
0.19343744 -0.26852709 0.5936594
0.20081396 -0.26759413 0.59218663
0.20048811 -0.26541498 0.58785045
0.2483677 -0.2689631 0.5973317
0.25540715 -0.270547 0.60083121
0.25695217 -0.26779729 0.5954594
0.11857516 -0.059419286 0.17531107
0.10063807 -0.041366868 0.13860805
-0.13926117 -0.20417781 0.45077202
-0.15140477 -0.25123426 0.54380363
-0.13247304 -0.2338253 0.5101319
-0.12807909 -0.22870429 0.50016677
-0.081642188 -0.2447976 0.53459883
0.053946719 -0.27140734 0.59457153
0.1564085 -0.26582471 0.58875716
0.16399956 -0.26533154 0.58816779
0.19388318 -0.27557921 0.61010933
0.19457345 -0.2746222 0.60824049
0.1946895 -0.26916599 0.59738642
0.097905032 -0.04637995 0.14895819
0.099568196 -0.046731405 0.1497435
0.098115563 -0.04143263 0.13912199
0.098908916 -0.041357543 0.13901362
0.099765316 -0.041313533 0.13897024
-0.18483008 -0.22518247 0.49206132
-0.17880522 -0.22322422 0.48846307
-0.16408843 -0.2149395 0.47267592
-0.15239911 -0.20917425 0.46176538
-0.14327601 -0.22880171 0.50146717
-0.13680075 -0.23755327 0.51929522
-0.13200769 -0.23387103 0.51218724
-0.12818027 -0.22996175 0.5045746
-0.12671696 -0.23107708 0.50688022
-0.10535632 -0.23837055 0.52257246
0.12279171 -0.27930132 0.61629826
0.12370893 -0.26999179 0.59774143
0.14515164 -0.27529874 0.60946834
0.14077517 -0.26263723 0.58393615
0.15512118 -0.26703164 0.59346813
0.16204426 -0.26538134 0.59053183
0.1676169 -0.26786861 0.59579408
0.17277563 -0.26757658 0.5954802
0.19256943 -0.27652952 0.61440676
0.19512777 -0.27430177 0.61008871
0.10566017 -0.05108244 0.15931793
-0.20202461 -0.22024171 0.48309159
-0.19772783 -0.22408178 0.49102408
-0.17924023 -0.20560531 0.45492676
-0.19388095 -0.23149261 0.50609815
-0.17339335 -0.21974795 0.48361468
-0.16602662 -0.21419992 0.47287145
-0.15295315 -0.20913331 0.46339586
-0.14243026 -0.2174612 0.48066285
-0.14360073 -0.22477315 0.49527329
-0.14176846 -0.22314744 0.49210772
-0.13475168 -0.23642023 0.51911229
-0.11822843 -0.2177102 0.48244193
0.054139182 -0.27599552 0.60851055
0.076688007 -0.27684516 0.6114077
0.11788037 -0.27642053 0.61273348
0.12686442 -0.27003372 0.60039252
0.19732906 -0.27244595 0.60895783
0.1989553 -0.27277547 0.60970533
0.32571092 -0.31652266 0.70419031
0.092660055 -0.042701446 0.14241697
0.098832011 -0.040988956 0.13930711
-0.19645071 -0.2326719 0.51025164
-0.18400206 -0.2260083 0.49749094
-0.17304848 -0.21562196 0.47714978
-0.16481835 -0.21278581 0.47187543
-0.15145966 -0.22411865 0.49542364
-0.077461325 -0.23720673 0.52574927
-0.075012669 -0.2315791 0.51454204
-0.073446214 -0.2293897 0.51021421
-0.072378792 -0.22921582 0.50992084
0.036901861 -0.26619178 0.59026349
0.077073067 -0.27714676 0.61448324
0.089809358 -0.27924639 0.61939472
0.11811817 -0.27592698 0.61421984
0.12445195 -0.27788147 0.61849636
0.15920316 -0.26513046 0.5946635
0.18111792 -0.26588932 0.59736377
0.32582897 -0.31372017 0.70147115
0.099068224 -0.040553492 0.13896412
0.099990554 -0.040389586 0.13868299
-0.077280968 -0.059216101 0.1677102
-0.208828 -0.22002232 0.48592952
-0.20087776 -0.22146706 0.48928174
-0.18501149 -0.22510883 0.49750701
-0.17791805 -0.22035384 0.48827067
-0.16343763 -0.21110912 0.47035035
-0.1411373 -0.21995057 0.48944306
-0.14103845 -0.22885394 0.50746107
-0.13156055 -0.23392409 0.51823062
-0.087898351 -0.23565871 0.52410012
0.13486657 -0.27583453 0.61742282
0.14357218 -0.26457292 0.59511
0.14119186 -0.2580826 0.58185029
0.15375683 -0.25954968 0.58549774
0.18890955 -0.27397501 0.61658192
0.34320569 -0.31313682 0.70415175
-0.19528137 -0.22779162 0.50429338
-0.18374754 -0.22907895 0.50753868
-0.16589236 -0.21115749 0.47210777
-0.16367546 -0.21052355 0.47094131
-0.15482543 -0.21366632 0.4778094
-0.15118547 -0.216804 0.48438215
-0.15375176 -0.22943063 0.50989282
-0.15337455 -0.2322541 0.51564938
-0.14264141 -0.23671739 0.52530307
-0.13126333 -0.22802298 0.50826246
-0.12254281 -0.222009 0.49652198
-0.072386988 -0.2356184 0.52691013
0.034670554 -0.27384374 0.6104154
0.055830143 -0.26456419 0.59272116
0.1481868 -0.27409387 0.61712813
0.14701681 -0.2696161 0.60796809
0.14450143 -0.26286188 0.59410918
0.16824333 -0.26058882 0.59078944
0.34118307 -0.3145678 0.70989859
0.10038886 -0.048073571 0.15536197
0.090018496 -0.040898368 0.14021885
0.099162757 -0.040113512 0.13912459
0.10003711 -0.039777126 0.13848884
-0.076471746 -0.057364628 0.16513558
-0.21315709 -0.22219287 0.49381351
-0.16834067 -0.21117221 0.47380936
-0.16523275 -0.21191241 0.47549102
-0.15420035 -0.21316895 0.47866398
-0.12360984 -0.22984625 0.51437479
0.038590882 -0.26630646 0.59771359
0.040613055 -0.2636531 0.59241253
0.090905324 -0.27562451 0.61961234
0.09321329 -0.27101111 0.61032915
0.32828405 -0.31532675 0.71371961
0.34344265 -0.30919108 0.70204115
0.099221006 -0.039747335 0.13890795
0.099633694 -0.039643034 0.13871787
-0.1851057 -0.21470545 0.48193038
-0.1732893 -0.20712739 0.46706775
-0.15868209 -0.20923097 0.47219291
-0.14079815 -0.22901949 0.51372701
-0.12819239 -0.22994278 0.51632249
-0.1274704 -0.23056774 0.51764256
0.053112384 -0.26217914 0.59248519
0.058723487 -0.26420751 0.59695363
0.067023441 -0.26187161 0.59263289
0.10064846 -0.27197838 0.61521441
0.33889356 -0.31289095 0.71233118
0.098945811 -0.047316059 0.15492454
0.099230327 -0.039509125 0.13894896
0.099584579 -0.039527059 0.13900515
-0.19678925 -0.2081794 0.4697015
-0.20748071 -0.22582586 0.50539505
-0.20357199 -0.22568379 0.50532395
-0.18383861 -0.21086399 0.47595495
-0.15111391 -0.21067628 0.47741783
-0.14990354 -0.22821459 0.51356137
-0.14682254 -0.22623272 0.50965893
-0.13320477 -0.22879244 0.51569355
-0.13217939 -0.22875425 0.5156728
0.038942616 -0.26668438 0.60336
0.041283373 -0.26552719 0.60111237
0.055626154 -0.26124436 0.59311289
0.0695232 -0.260804 0.59299207
0.097516924 -0.27329135 0.62025928
0.10103627 -0.27194849 0.61769599
0.32786661 -0.31549513 0.7200833
0.32633355 -0.30920449 0.70705688
0.1014459 -0.047066268 0.1551494
0.11916129 -0.055826902 0.17417009
0.10081474 -0.039117955 0.13876443
-0.078335829 -0.059268545 0.17068745
-0.16992933 -0.19712374 0.45020586
-0.18076757 -0.21559751 0.48774564
-0.17520835 -0.21825501 0.49355263
-0.15601662 -0.20324115 0.46363661
-0.15345044 -0.20760845 0.47280401
-0.15104312 -0.20810626 0.47396988
-0.1442215 -0.2295671 0.5186882
-0.14067945 -0.22665884 0.51288319
-0.11601624 -0.22068101 0.50194442
-0.11388386 -0.21800712 0.49654323
-0.11545125 -0.2263719 0.51373124
-0.034935024 -0.2751818 0.61915082
-0.023438478 -0.27691653 0.62339061
0.053975929 -0.25888973 0.59057617
0.055866621 -0.26135078 0.5957675
0.32222691 -0.30556068 0.70229977
0.099963538 -0.046753462 0.15502009
0.099845879 -0.046132091 0.15372992
0.12612244 -0.058497369 0.18077217
0.10046054 -0.038858078 0.13874014
-0.21250823 -0.21757683 0.49191439
-0.19210869 -0.21386072 0.48538443
-0.17550772 -0.20259897 0.46298289
-0.17388003 -0.21271497 0.48406047
-0.1604389 -0.20768586 0.47440448
-0.1536185 -0.20408811 0.46733573
-0.15255795 -0.20382205 0.46684507
-0.13544486 -0.22315265 0.5079301
-0.11881039 -0.22373064 0.51008934
-0.030204725 -0.27984184 0.63159573
-0.023629606 -0.27922928 0.63070446
-0.022240305 -0.27638578 0.62488693
-0.020891128 -0.27421445 0.62046081
0.045300398 -0.25882313 0.59235668
0.052230343 -0.25610584 0.58712041
0.053760737 -0.25719929 0.58947718
0.076579705 -0.2690393 0.61535388
0.32706982 -0.31366602 0.72238547
0.099733196 -0.046923369 0.15596236
0.098892517 -0.038771085 0.13900352
0.099135533 -0.038736489 0.13894583
0.099813886 -0.038757041 0.13902766
-0.2025322 -0.22139561 0.50236058
-0.17637995 -0.21397848 0.488437
-0.17212331 -0.21186233 0.48427752
-0.16602261 -0.20964937 0.48002365
-0.16259906 -0.2059225 0.47246066
-0.15242091 -0.20127827 0.46338028
-0.15013526 -0.2254554 0.51387578
-0.12560476 -0.22014238 0.50424051
-0.12535217 -0.22169846 0.50749642
-0.1191476 -0.2405093 0.54704309
0.041570488 -0.27127659 0.62051386
0.055504818 -0.25824606 0.59418416
0.058869563 -0.2613261 0.6007967
0.076938935 -0.26921666 0.61828768
0.32634634 -0.31162319 0.72118074
0.32312036 -0.30693436 0.71122521
0.34012467 -0.31335199 0.725586
0.33992895 -0.303913 0.70591307
0.10033838 -0.03846271 0.13898291
-0.19436377 -0.20582315 0.47223181
-0.19868143 -0.21446228 0.4900488
-0.19883737 -0.21580105 0.49284053
-0.16396217 -0.20566107 0.47368672
-0.17144299 -0.22234619 0.50814879
-0.15010566 -0.20087729 0.46449733
-0.15019207 -0.21938248 0.50320309
-0.14960623 -0.22004823 0.50463003
-0.15055494 -0.24003862 0.54639173
-0.021257827 -0.28063151 0.63893741
0.077884294 -0.26707089 0.61642033
0.32738325 -0.31620201 0.73391998
0.096673392 -0.043134876 0.14908014
0.099711932 -0.038370688 0.13929343
0.10070548 -0.038241934 0.13908273
-0.079753362 -0.060331278 0.17526598
-0.16822897 -0.20828356 0.48080704
-0.14491439 -0.20312718 0.47136569
-0.14008625 -0.19655257 0.45784149
-0.11785351 -0.23503676 0.5400154
-0.030723004 -0.28122419 0.64224398
-0.0094233146 -0.2744635 0.62931174
0.039669361 -0.26670769 0.61594641
0.064529121 -0.25680098 0.596618
0.3361868 -0.30857989 0.72159976
0.12189621 -0.055458453 0.17705797
-0.076158591 -0.054384872 0.16356581
-0.1852164 -0.22199635 0.51061642
-0.17251994 -0.20952547 0.48507062
-0.17166224 -0.20961365 0.4853082
-0.17012659 -0.21005416 0.48633087
-0.16792011 -0.20953171 0.48536128
-0.1645349 -0.20592315 0.47795251
-0.025675593 -0.28531772 0.65383255
-0.0067554568 -0.27785233 0.63922203
0.041529473 -0.26212531 0.60895324
0.27017343 -0.31247085 0.7289595
0.33315763 -0.30600476 0.71911514
0.10001111 -0.037874624 0.13935544
-0.18933345 -0.19097537 0.44666693
-0.20401089 -0.21138845 0.48902529
-0.17513712 -0.21093634 0.48982739
-0.16339177 -0.21584056 0.50093436
-0.15146656 -0.22529264 0.52168941
-0.14941253 -0.23453671 0.54140109
-0.02300155 -0.28279522 0.6513598
-0.017524706 -0.2782934 0.64215499
-0.0054964107 -0.27672666 0.63956839
0.047111958 -0.25724819 0.60150272
0.050284639 -0.25439823 0.59565765
0.32999623 -0.30487281 0.71965611
0.40620866 -0.24455187 0.59648889
0.40982941 -0.24495581 0.59756595
0.11952496 -0.053823449 0.17488644
0.1194668 -0.053587332 0.17438252
0.098009147 -0.037588686 0.13917577
-0.15976402 -0.19966544 0.4687438
-0.15918684 -0.20980869 0.49036452
-0.010878721 -0.27953687 0.64788413
0.03947062 -0.26336223 0.61656648
0.26571879 -0.31049091 0.73079669
0.27668554 -0.30766892 0.72546715
0.32887727 -0.30724624 0.72778332
0.41625479 -0.24588235 0.60258353
0.41993856 -0.24719818 0.60561055
0.11892164 -0.053616516 0.17512019
0.098618954 -0.037333768 0.13921943
0.099009708 -0.037366845 0.13931409
0.10014237 -0.03744638 0.13955298
-0.075289883 -0.053471543 0.16343065
-0.18414564 -0.21748509 0.50718719
-0.17938319 -0.21356572 0.49910712
-0.15054913 -0.20400037 0.48045924
-0.14625862 -0.23427999 0.54544097
-0.13864119 -0.2360899 0.54978389
-0.12881157 -0.22894219 0.53511983
-0.13297091 -0.26609561 0.6142658
-0.041935761 -0.27916738 0.64787304
-0.025618931 -0.27385283 0.63753068
-0.023187131 -0.28098044 0.65291584
0.30335534 -0.30768117 0.73031741
0.31972152 -0.30208072 0.71936649
0.3334499 -0.30535078 0.72721082
0.3277947 -0.29555634 0.70592523
0.40690538 -0.23996937 0.59204942
0.098022662 -0.037108961 0.13925314
0.09834598 -0.037111286 0.13927832
0.099768654 -0.037178002 0.13950935
-0.1868225 -0.21620922 0.50632191
-0.1590832 -0.2007435 0.47487029
-0.13283212 -0.23630832 0.55286402
-0.083412297 -0.29116559 0.67372781
-0.066970199 -0.28377232 0.65889287
-0.053376764 -0.28320211 0.65852499
-0.041937768 -0.27709752 0.64614069
-0.028474575 -0.27529025 0.64310908
-0.007041493 -0.27456459 0.64290047
-0.0029681644 -0.27548558 0.64513385
0.26296458 -0.30853757 0.73282033
0.27575377 -0.30582964 0.72781289
0.33177921 -0.30089995 0.72075766
0.11628734 -0.051656194 0.17218268
0.11125937 -0.048346095 0.16476075
0.09848807 -0.036932703 0.13945773
0.098747186 -0.036905508 0.13941558
-0.074979298 -0.051962871 0.16138221
-0.17960897 -0.19629911 0.46590236
-0.17939405 -0.21289364 0.50169241
-0.1670008 -0.20207995 0.47916737
-0.16469365 -0.20137741 0.47779983
-0.12618631 -0.27099615 0.63034171
-0.050989095 -0.28388652 0.66291636
-0.040898625 -0.27820259 0.65130389
0.31039321 -0.30182418 0.72458053
0.1126809 -0.049144287 0.16724481
0.11070815 -0.047967706 0.1645826
0.099589765 -0.036609847 0.13938861
-0.18194821 -0.19834946 0.47207156
-0.15263225 -0.20147471 0.48072398
-0.14735976 -0.19892022 0.47553164
-0.15433569 -0.21804549 0.51649654
-0.14327028 -0.24405019 0.57351828
-0.12792021 -0.23039939 0.5449459
-0.13077657 -0.27478927 0.64088333
-0.073580831 -0.28667104 0.67028958
-0.071514435 -0.28304866 0.66257846
-0.056203712 -0.28039265 0.65781212
-0.054591518 -0.28857327 0.6756295
-0.053131744 -0.28803188 0.67455113
-0.051456157 -0.28571871 0.66965026
-0.0083943913 -0.27992299 0.65986913
-0.0044791754 -0.27315345 0.64546239
0.29907516 -0.30102494 0.72533387
0.3157365 -0.30399001 0.73282588
0.10576717 -0.044862278 0.15821497
0.097836472 -0.036295339 0.1391543
-0.074568726 -0.050954565 0.16039228
-0.17964835 -0.19674516 0.4706459
-0.18036491 -0.21353097 0.50710702
-0.16470085 -0.20077565 0.48038346
-0.1569861 -0.20580417 0.49182108
-0.12470558 -0.23161633 0.55005878
-0.12282257 -0.2322561 0.55157256
-0.12827519 -0.26417628 0.62064177
-0.12368929 -0.27490121 0.64426595
-0.090446718 -0.29260647 0.68493402
-0.06553223 -0.27809894 0.65500057
-0.055232536 -0.28128409 0.662597
-0.050115839 -0.28406453 0.66897672
-0.042139463 -0.2729736 0.64537323
-0.0070820241 -0.27931362 0.66144091
0.28997836 -0.30076575 0.7274034
0.30584759 -0.2980051 0.72243083
0.32157937 -0.30002612 0.72784877
0.098017193 -0.035990592 0.13906316
0.099960722 -0.036144536 0.13952455
-0.18127102 -0.19564261 0.47004735
-0.15798971 -0.20491154 0.49182507
-0.14964019 -0.20511431 0.49281666
-0.15061165 -0.20824271 0.49958673
-0.13220546 -0.23489051 0.55900925
-0.12773941 -0.23000294 0.54862547
-0.09316615 -0.29075047 0.68360138
-0.092259012 -0.29263631 0.6877811
-0.056962598 -0.27281648 0.64680213
-0.05413017 -0.28132796 0.66558152
-0.03064565 -0.27956748 0.6632784
-0.025253067 -0.28269765 0.67047137
-0.023886932 -0.28356472 0.67245489
0.28625757 -0.30263382 0.73448306
0.31967771 -0.29689333 0.72413802
0.10717843 -0.045903884 0.16188318
-0.073071234 -0.050218184 0.16005386
-0.17819671 -0.18979749 0.45934749
-0.15830076 -0.19883597 0.48050097
-0.15538816 -0.20138015 0.48627704
-0.15227577 -0.2038056 0.49180561
-0.1352101 -0.20550138 0.49665931
-0.15445986 -0.25550926 0.6051116
-0.11815991 -0.27822039 0.65735525
-0.10733781 -0.2859028 0.67493057
-0.10446714 -0.28540596 0.67403096
-0.094738305 -0.28469333 0.67311335
-0.072856024 -0.27799371 0.6598649
-0.055752005 -0.27182665 0.64746833
-0.054877214 -0.27505359 0.65460742
-0.034554161 -0.27409017 0.65384227
0.10511781 -0.044599436 0.15955356
0.098625407 -0.035632815 0.13944781
0.10104102 -0.035566822 0.13946335
-0.16561718 -0.19791228 0.47996011
-0.1500445 -0.20376499 0.49390444
-0.13583446 -0.20049894 0.48765936
-0.12749663 -0.23182896 0.55727106
-0.12699524 -0.25706226 0.61292076
-0.095304504 -0.28022784 0.66610485
0.30375087 -0.29522678 0.72593486
0.098829485 -0.035479058 0.13969138
-0.072872609 -0.049442917 0.15953735
-0.15401278 -0.20159779 0.49089533
-0.14958178 -0.20354268 0.49550164
-0.14020799 -0.21245307 0.51586401
-0.13030721 -0.26979074 0.64347649
-0.10562109 -0.28610718 0.68127352
-0.087337241 -0.28468806 0.67937142
0.28951398 -0.2966432 0.73138946
0.10119635 -0.035006806 0.13937874
-0.077120617 -0.052258041 0.16610017
-0.076375112 -0.05205521 0.16570026
-0.076608248 -0.052602805 0.16690201
-0.1653592 -0.1981934 0.48459846
-0.15429607 -0.19542459 0.47919896
-0.15320908 -0.19937217 0.48805264
-0.1500484 -0.20328553 0.49697196
-0.14890584 -0.22507732 0.54551226
-0.12670276 -0.25663155 0.61720687
-0.12475742 -0.26729617 0.64105707
-0.11299516 -0.28201714 0.6746009
-0.099014305 -0.28548726 0.68327606
-0.076891921 -0.2859579 0.68583852
0.31592408 -0.28649732 0.71395284
0.10148458 -0.041811299 0.15510531
0.10251214 -0.041792002 0.15513298
0.099762045 -0.034976423 0.13978729
0.099993192 -0.034937091 0.13971575
0.10091355 -0.034779321 0.13942806
-0.16774419 -0.19798909 0.4860042
-0.17264676 -0.20609038 0.5037626
-0.15642308 -0.19491133 0.47991213
-0.15285805 -0.1978517 0.48672751
-0.15026583 -0.2011151 0.49419758
-0.14037761 -0.24585047 0.59481841
-0.13999946 -0.24996977 0.60404724
-0.13889177 -0.2501421 0.60450852
-0.12903133 -0.26700032 0.64285165
-0.12778176 -0.26707178 0.643098
-0.091707557 -0.28775203 0.69179451
-0.071905121 -0.2802006 0.67629564
0.10207575 -0.041309699 0.15467407
0.10019501 -0.034640964 0.13964601
0.10064098 -0.034556266 0.13948764
-0.077474415 -0.053240702 0.16953386
-0.14895548 -0.19953711 0.49283388
-0.14297181 -0.24749662 0.600878
-0.12763774 -0.26220536 0.6349588
-0.12091687 -0.25794721 0.62587333
-0.074441209 -0.27743131 0.67284918
-0.071008682 -0.28099826 0.68109411
0.11428992 -0.31773096 0.77649099
0.097734295 -0.034305569 0.13930142
0.099295452 -0.034563731 0.13999008
0.099747017 -0.034480602 0.13983527
0.10049244 -0.034385707 0.1396744
-0.15938069 -0.19201897 0.47723746
-0.15775679 -0.19099049 0.47503403
-0.1238298 -0.25457823 0.62077981
-0.05933395 -0.27583358 0.67325675
0.41518885 -0.23524548 0.61531162
0.099997081 -0.03420487 0.13981475
0.1005215 -0.034153387 0.13973556
-0.078391649 -0.053311739 0.17092466
-0.14528443 -0.18892816 0.47326806
-0.14380147 -0.18802319 0.47132468
-0.14179337 -0.25493047 0.62298942
-0.12193001 -0.25464109 0.62375295
0.33174199 -0.29530692 0.74826336
0.097862624 -0.038830936 0.15072459
0.099659733 -0.039188925 0.15166385
0.10131957 -0.039639033 0.15280148
0.09939906 -0.034118 0.14016111
-0.077950507 -0.053151622 0.17124854
-0.15283483 -0.18588866 0.46782693
-0.14439945 -0.18523525 0.46694919
-0.13186565 -0.2682319 0.65667713
0.31655639 -0.2865136 0.73064661
0.09700872 -0.038002551 0.14941622
0.099040419 -0.03385783 0.1401332
-0.077816874 -0.053320009 0.17230441
-0.13987131 -0.24827082 0.61335182
-0.13840352 -0.25558999 0.63018733
0.086815216 -0.31710279 0.78721136
0.087411001 -0.30815449 0.76680291
0.099737577 -0.31001896 0.77196348
0.10779934 -0.30906519 0.77037174
0.11269749 -0.31746987 0.78993881
0.33371198 -0.29267785 0.74939972
0.40405574 -0.22442135 0.59852678
0.10037395 -0.03322313 0.13937208
-0.078375891 -0.052393999 0.17080583
-0.077910736 -0.052809868 0.17179513
-0.077724598 -0.052918516 0.17205842
-0.13172744 -0.2619994 0.64816493
-0.12126714 -0.24894318 0.61895663
-0.082265981 -0.27344462 0.67809165
0.08969868 -0.30891967 0.77222657
0.09033028 -0.3057203 0.76492721
0.1029718 -0.31313923 0.78289431
0.10764169 -0.3074182 0.77010214
0.12373643 -0.31359962 0.78548259
0.1472742 -0.30526268 0.76807481
0.14997195 -0.30721471 0.7727555
0.32100007 -0.28936592 0.74438053
0.10023124 -0.033053655 0.13956451
0.10044342 -0.033007693 0.1394746
-0.14916462 -0.18421482 0.47029263
-0.13519385 -0.24862854 0.61992902
-0.13581754 -0.25544345 0.63560355
0.071676664 -0.31550685 0.78962052
0.091330975 -0.30759349 0.77282965
0.10210177 -0.31426972 0.78903329
0.10498992 -0.31275168 0.78574663
0.10787419 -0.31129476 0.7826001
0.14614409 -0.30510014 0.77116084
0.32416049 -0.28455833 0.73703474
0.099219792 -0.038241457 0.15205245
0.10072603 -0.032746486 0.13948807
-0.077989355 -0.051987194 0.1712276
-0.077216201 -0.052386407 0.17221116
-0.15194701 -0.18602271 0.47631341
-0.14784148 -0.18264003 0.46878242
-0.1454898 -0.25338158 0.63291663
-0.13336974 -0.25142553 0.62929505
-0.133278 -0.25981668 0.64875036
-0.12465727 -0.26082075 0.65172631
0.073554561 -0.31501585 0.79225427
0.093052462 -0.30652308 0.77403796
0.15398939 -0.30570689 0.77673358
0.32058987 -0.28309542 0.73686725
0.33006406 -0.28681761 0.74620724
0.4135873 -0.2245789 0.60824484
0.099245459 -0.032826912 0.14016129
0.10051475 -0.032548077 0.13961035
-0.07848683 -0.05073962 0.16895761
-0.07831867 -0.050855465 0.16923995
-0.078150339 -0.050972249 0.16952506
-0.15312609 -0.18677726 0.48005721
-0.13631064 -0.25946239 0.65058988
-0.12123094 -0.27104154 0.67869967
0.072595894 -0.31673846 0.79985142
0.11883555 -0.30625394 0.77895433
0.12170638 -0.30496967 0.77618223
0.40808386 -0.22372141 0.60876995
0.42903367 -0.22102556 0.60408556
0.1179665 -0.045748651 0.1722776
-0.076749668 -0.051289987 0.17104366
-0.10295989 -0.25935456 0.65581632
0.097670406 -0.30286208 0.7730248
0.41235125 -0.22236949 0.60888845
0.41091302 -0.21989627 0.60299146
0.099993989 -0.032110926 0.13975532
0.10020491 -0.032064803 0.13966359
-0.078132786 -0.049793512 0.16809718
0.0052028322 -0.3285706 0.82988989
0.071290985 -0.30948839 0.79016483
0.099020436 -0.032131802 0.14033593
0.0996935 -0.031875983 0.1397869
-0.077831902 -0.049199492 0.16738497
-0.076394677 -0.049732115 0.16875553
-0.07641197 -0.050042115 0.16948649
-0.11135367 -0.25069118 0.64065969
-0.10157316 -0.26030222 0.66412759
-0.10080722 -0.27099055 0.68943292
-0.098956592 -0.26944965 0.68593866
0.058601968 -0.31248099 0.79993641
0.15683644 -0.29615113 0.76907367
0.15752169 -0.29128399 0.75763237
0.098276451 -0.031847917 0.14021909
0.098637223 -0.031862568 0.14028208
-0.11778132 -0.25605848 0.65580767
-0.10113369 -0.26598668 0.68068904
-0.097240537 -0.26674294 0.68279272
-0.00017560742 -0.32744908 0.83455634
0.010176431 -0.32433403 0.82798433
0.056549706 -0.30987659 0.79734987
0.067628726 -0.30623275 0.78958029
0.14275596 -0.30076587 0.78256202
0.14845468 -0.29840004 0.77739882
0.16492549 -0.29108939 0.7613548
0.16703962 -0.29179215 0.76319057
0.42954332 -0.2214303 0.61701566
0.09878128 -0.031675737 0.14046451
0.099396192 -0.031528685 0.14016451
-0.076300032 -0.049624182 0.16986035
0.12674107 -0.29836205 0.77927482
0.15171343 -0.29352269 0.76973432
0.15824917 -0.29297903 0.76896167
0.1606082 -0.29412326 0.7718789
0.16403005 -0.29114726 0.76505625
0.17024176 -0.28733829 0.75647104
0.41088003 -0.21933433 0.61357981
0.41501456 -0.21991232 0.61528939
0.41659129 -0.21661396 0.6075502
0.1000701 -0.031291757 0.14027038
-0.10616016 -0.24988507 0.64798951
0.0081576025 -0.32030982 0.8259905
0.11897026 -0.2989209 0.78370696
0.12393618 -0.29463229 0.77383232
0.13320552 -0.29621857 0.77838337
0.14750172 -0.29394048 0.77408248
0.16240358 -0.28996083 0.7657516
0.41606051 -0.21844426 0.61491328
0.42135561 -0.21879676 0.61618644
0.41081971 -0.21235125 0.59988928
-0.11501575 -0.25482008 0.66214615
-0.10399336 -0.25358564 0.66007459
-0.10425673 -0.26254392 0.6816228
0.0095154438 -0.3148188 0.81679422
0.026843339 -0.31486717 0.81832689
0.10497012 -0.29689667 0.78144592
0.12249218 -0.29781976 0.78510058
0.13638054 -0.29438227 0.77795947
0.14164029 -0.29458964 0.77888888
0.14826977 -0.29084307 0.77041
0.15250927 -0.29235569 0.77439827
0.42015421 -0.21778151 0.61672145
0.096746333 -0.035667866 0.15178305
-0.12495408 -0.26864168 0.69784397
0.084683247 -0.30136338 0.79433471
0.088903956 -0.29848719 0.78772396
0.093694046 -0.29749408 0.78571689
0.10643056 -0.29501244 0.78076476
0.13199434 -0.29836708 0.79099321
0.1607246 -0.28736329 0.76674289
0.16378272 -0.28675675 0.76552749
0.41458431 -0.21691768 0.61726606
0.09758243 -0.035619002 0.15241523
0.099131741 -0.035994746 0.15345214
0.10031813 -0.036048234 0.15367998
0.097988412 -0.03063619 0.1403926
0.098641291 -0.030636122 0.14044623
-0.075424038 -0.045634825 0.16301598
-0.10835063 -0.25174859 0.66141772
0.1253836 -0.29398611 0.7836234
0.15708014 -0.28563637 0.76596743
0.41888815 -0.21552789 0.61735564
0.098232217 -0.035483304 0.15282768
0.09819153 -0.030341465 0.14032213
-0.10700835 -0.25022107 0.66090423
0.0062541161 -0.31826156 0.83670574
0.0077999337 -0.31495485 0.82875639
0.081487402 -0.29976672 0.79785943
0.094917655 -0.29365787 0.78406584
0.10724255 -0.29456589 0.78732389
0.13271074 -0.28997862 0.77826291
0.14377503 -0.28168422 0.75892949
0.15494196 -0.28657356 0.77181756
0.16279399 -0.28532287 0.76942372
0.42017639 -0.21749705 0.62540263
0.098254263 -0.035224445 0.15289043
0.10058946 -0.0353157 0.15331028
-0.11901738 -0.25944975 0.68566072
-0.00096339366 -0.31526738 0.83277833
0.0078108022 -0.3151156 0.83315367
0.034670394 -0.30553532 0.81191748
0.10231927 -0.28943098 0.77813685
0.14404912 -0.28090316 0.76075208
0.15107846 -0.28758314 0.77775419
0.4177044 -0.21007709 0.61015439
0.42342138 -0.21223985 0.6159519
-0.11281379 -0.25227714 0.67174542
0.0043893768 -0.31710425 0.84180862
0.027388517 -0.3019183 0.80631387
0.047667075 -0.30002645 0.80339038
0.10340105 -0.2866064 0.77507156
0.12881705 -0.28640121 0.77675283
0.13131261 -0.28449827 0.77227175
0.10051765 -0.029488852 0.14033251
-0.078235872 -0.048877306 0.17351334
-0.0099198567 -0.31261787 0.83354074
0.036593288 -0.30493492 0.81853235
0.074650154 -0.29643446 0.80075991
0.0906635 -0.28754818 0.78011447
0.10015384 -0.034471288 0.1532997
-0.07812655 -0.046540707 0.16842841
-0.1232555 -0.25196585 0.67648351
-0.11768389 -0.25862557 0.69357228
0.0023925609 -0.31375992 0.84154433
0.0041552875 -0.313548 0.84117132
0.012499351 -0.30700862 0.82560486
0.029243138 -0.30134764 0.81296587
0.038170483 -0.30298012 0.81781936
0.042057369 -0.30523008 0.82376862
0.060609888 -0.30151358 0.8161357
0.090842612 -0.28684235 0.78222448
0.092300244 -0.28616017 0.78065217
0.10608146 -0.28236198 0.77239597
0.12807512 -0.28952906 0.79219228
0.12825234 -0.28622487 0.7839722
0.10053866 -0.029004442 0.14041764
0.10090674 -0.028894797 0.1401768
-0.078652106 -0.048962604 0.17515613
-0.10973597 -0.25044349 0.67712015
0.00048349972 -0.3115238 0.83991414
0.0057417527 -0.31062347 0.83812523
0.0094073722 -0.31236699 0.84281826
0.031289145 -0.30272219 0.82059962
0.038192287 -0.30217361 0.81983858
0.064555973 -0.29516217 0.80461502
0.07111571 -0.28768337 0.78646207
0.088487744 -0.28869784 0.79054588
0.094741888 -0.28232846 0.77514488
0.099215731 -0.2807931 0.77169627
0.10625354 -0.28153461 0.77417845
0.11376859 -0.27934033 0.76934868
0.147278 -0.2816256 0.7780478
0.098823719 -0.033971433 0.15335682
-0.078842409 -0.04689737 0.17068449
-0.0792493 -0.048666351 0.175102
-0.11336882 -0.24431533 0.66463989
-0.11356913 -0.25196457 0.68388104
-0.11182968 -0.2547119 0.69095409
0.0092515675 -0.31009001 0.84124219
0.018808248 -0.29935411 0.8150692
0.034445465 -0.29964441 0.81720203
0.038152859 -0.3009941 0.82093275
0.062679753 -0.29344341 0.80412173
0.066798635 -0.28941607 0.79435116
0.079270892 -0.28539285 0.78534037
0.081463389 -0.28694582 0.78944713
0.093992732 -0.28368405 0.78235859
0.14434433 -0.28451258 0.78895992
0.097647615 -0.028538823 0.14029017
-0.12048963 -0.24091628 0.65861911
0.0055109179 -0.30714703 0.83763903
0.0071025714 -0.30451688 0.83112735
0.024191985 -0.30027193 0.82193345
0.063028097 -0.28691077 0.79164052
0.06732475 -0.2839247 0.78447354
0.077085644 -0.2826221 0.78206199
0.081648335 -0.28632122 0.79183549
0.10157761 -0.28004238 0.7777524
0.11180186 -0.28009906 0.77882171
0.14852543 -0.27503687 0.76933956
0.10005791 -0.033201948 0.1529621
0.00030304497 -0.30986595 0.84826106
0.030895848 -0.29745835 0.81950277
0.06238443 -0.28999373 0.80339807
0.079728998 -0.28446248 0.79091686
0.093693979 -0.28997406 0.80621427
0.11287402 -0.28131878 0.78595483
0.097422995 -0.033020876 0.15298274
0.099209175 -0.033024237 0.15315497
0.099550515 -0.028143408 0.14077163
0.10026915 -0.028041443 0.14057794
0.012009434 -0.29955909 0.82724905
0.069459334 -0.2831986 0.79073459
0.074313 -0.28230941 0.78891051
0.094929874 -0.28251964 0.79135448
0.099688232 -0.032657593 0.15298855
0.098683938 -0.02794373 0.14084391
0.099962555 -0.027803926 0.14060479
-0.072200485 -0.28131422 0.77666843
0.0036231689 -0.30592284 0.84699339
0.029390935 -0.29751158 0.82778555
0.066203967 -0.28260681 0.7929222
0.094562352 -0.28499418 0.80170679
0.096240379 -0.28016502 0.78945363
0.10188869 -0.27706599 0.78201753
0.11414733 -0.28167856 0.79501677
0.11794718 -0.28238556 0.79718822
0.098211646 -0.032515053 0.1532135
0.10086875 -0.027404152 0.14032762
-0.12416311 -0.24384809 0.67887288
-0.097818844 -0.28073829 0.77665526
-0.091825105 -0.27600142 0.76498395
-0.091840558 -0.28817165 0.79642135
0.028047089 -0.29979619 0.83776641
0.081381798 -0.28603682 0.80725831
0.11485132 -0.2819908 0.7999655
0.097794674 -0.032220457 0.15314671
0.097987376 -0.027437357 0.14080945
-0.078736655 -0.046894331 0.17515174
-0.099886484 -0.28063753 0.7800954
-0.076848812 -0.28446245 0.79222423
-0.003876298 -0.29808244 0.8345505
0.021832895 -0.2916337 0.82025766
0.099087551 -0.031895518 0.15316328
0.10009367 -0.031868044 0.15318799
-0.078834698 -0.046680279 0.17535487
-0.10285091 -0.27820548 0.77739787
-0.10110061 -0.27760869 0.77600795
-0.095567778 -0.27470529 0.76896238
-0.086197019 -0.28786433 0.80421507
0.099512316 -0.031652797 0.15331176
0.097842112 -0.026890803 0.14072043
0.098073952 -0.026854355 0.14064768
0.099659011 -0.026827542 0.14073035
0.099796824 -0.026757339 0.14056042
0.1003655 -0.026604068 0.14021489
-0.079195246 -0.046165541 0.17474477
-0.078426011 -0.046540398 0.17580292
-0.090046778 -0.27563989 0.77585208
0.099535137 -0.031391867 0.1533751
-0.079306141 -0.04569478 0.17426863
-0.078142136 -0.045964707 0.17509489
0.064383335 -0.27643582 0.79709768
0.06766168 -0.2758891 0.79597807
0.099049971 -0.026354244 0.14078817
-0.078650422 -0.045053147 0.17340986
0.0010770853 -0.29395258 0.84143054
0.096693844 -0.030716365 0.15280944
0.098592974 -0.030905411 0.15349966
-0.10757154 -0.28106919 0.80056918
-0.099815495 -0.27673396 0.78978902
0.10026485 -0.030726193 0.15394768
0.097890168 -0.025802918 0.14058253
0.10011917 -0.025649844 0.14039809
-0.076081693 -0.043132234 0.17008466
-0.11095956 -0.27489674 0.78782415
-0.075279482 -0.28062525 0.80679858
-0.0027011568 -0.29010397 0.83956879
0.098905429 -0.030346006 0.15355578
0.099090993 -0.030277295 0.15339044
0.098468795 -0.025643999 0.1409072
-0.07580746 -0.043106243 0.17081164
0.098387852 -0.025368549 0.14085418
0.10000292 -0.025116906 0.14034134
0.10023722 -0.025082564 0.140273
-0.073217735 -0.27455407 0.79903799
-0.0065641711 -0.2821528 0.82652849
0.0023781457 -0.28677714 0.83998495
0.014264676 -0.28129804 0.82636803
0.098795891 -0.02990317 0.15388544
0.10100261 -0.030055566 0.15452713
0.09802974 -0.025113167 0.14082599
0.098669998 -0.025103565 0.14086622
0.099626414 -0.024856025 0.14029466
-0.076036669 -0.041694719 0.16850452
-0.090940543 -0.27819473 0.81132227
-0.073358595 -0.27323464 0.79964644
-0.067350768 -0.2674166 0.78442311
-0.0066345725 -0.28194362 0.83035374
-0.0048936117 -0.2818923 0.83039588
0.098750465 -0.029614422 0.15387002
0.098969541 -0.02484441 0.14089641
-0.077016965 -0.041533969 0.16873333
-0.076459974 -0.041533165 0.16878998
-0.07649032 -0.042579718 0.171654
-0.076214567 -0.042587779 0.17170519
-0.12119056 -0.27412549 0.80127782
-0.067415126 -0.26574764 0.78400803
-0.063859381 -0.26382083 0.77910447
-0.063001513 -0.2680997 0.79091799
0.097187988 -0.029156584 0.15323108
0.099138215 -0.029353101 0.1539755
0.097811498 -0.024660073 0.14097811
0.099531479 -0.024445441 0.14057188
-0.076867491 -0.042623892 0.17252925
-0.11318383 -0.27248368 0.80186182
-0.086735651 -0.27076575 0.79995328
-0.08387661 -0.27240139 0.80476379
-0.01040583 -0.27285117 0.81384659
0.10066975 -0.029110903 0.15425712
-0.080972597 -0.042673964 0.1730279
-0.079266153 -0.043699719 0.17605358
-0.077485248 -0.043409005 0.17544052
-0.11745498 -0.26913947 0.79641956
-0.062682554 -0.26214027 0.78293884
-0.010509545 -0.27129945 0.8139382
-0.0087244101 -0.27555609 0.8259213
0.0017715403 -0.27712157 0.83138978
0.097399108 -0.024139432 0.14092438
-0.11405929 -0.26681453 0.79458588
-0.082848661 -0.26435745 0.79114258
-0.064569801 -0.2616688 0.78564507
0.0032918165 -0.27350929 0.82602262
0.098377466 -0.028525619 0.15396881
0.099651255 -0.028594846 0.15430056
-0.079940215 -0.045013279 0.18131924
-0.084727332 -0.26353258 0.79290962
-0.078450046 -0.25745863 0.77658576
-0.063580066 -0.26310623 0.79404312
0.10070515 -0.028442962 0.15479103
-0.081065059 -0.042093433 0.17383291
-0.079029143 -0.041571934 0.17259036
-0.00018284154 -0.27466387 0.83798707
0.098943755 -0.028058773 0.15432069
0.099408433 -0.028096003 0.15447716
-0.078729957 -0.041259717 0.17255905
-0.082733311 -0.25822106 0.78676641
-0.068554744 -0.25958797 0.79223233
-0.0022564481 -0.26819977 0.82408118
0.099188365 -0.023073914 0.14103435
0.099916868 -0.022980142 0.14085063
-0.079007879 -0.041942757 0.17529756
-0.083672978 -0.26005536 0.79621559
-0.076430209 -0.25675747 0.787642
-0.0023472856 -0.26696438 0.82513613
-0.00051505899 -0.26901826 0.83119595
0.097541638 -0.027399769 0.15390982
0.098439999 -0.022914058 0.14123112
-0.078173406 -0.039948858 0.17052396
-0.28967968 -0.27976215 0.83345878
0.095526114 -0.026647743 0.15233777
0.098690793 -0.027283769 0.15452351
0.10113451 -0.027370719 0.15505326
-0.068233393 -0.25202361 0.78372216
-0.0094118388 -0.26744145 0.83497715
-0.0076866704 -0.26640975 0.83220345
-0.0060115447 -0.26406318 0.82563472
-0.29033107 -0.2771526 0.83494526
-0.082451098 -0.25592047 0.79774582
-0.0094414689 -0.27042261 0.84833694
-0.0077137905 -0.26824847 0.84223729
0.096852779 -0.0264672 0.15359721
0.09934403 -0.026842378 0.1549762
0.10069002 -0.026928332 0.15538312
-0.077737108 -0.039405528 0.17148548
-0.12451565 -0.26310802 0.81821674
-0.009550387 -0.26875731 0.84829527
-0.0078070848 -0.26725906 0.84413224
0.10001802 -0.021774812 0.14111556
-0.29172698 -0.27530941 0.83862078
-0.28966188 -0.27480176 0.83737922
-0.00078089722 -0.26660714 0.84789062
0.10027749 -0.026364276 0.15536608
0.098278135 -0.021623073 0.14122161
0.10067645 -0.021412712 0.14089134
-0.078422107 -0.040109336 0.17517233
-0.087514482 -0.25105414 0.79640871
0.099645205 -0.025997216 0.15505439
0.098313212 -0.021386553 0.14129078
0.099197663 -0.021342834 0.14126901
0.00048433145 -0.25780886 0.83175778
0.0064010089 -0.24420832 0.79211658
0.10051645 -0.025639245 0.15494885
0.09796229 -0.021135412 0.14127092
0.098340966 -0.021147344 0.14135243
-0.076542459 -0.038399212 0.17205481
0.098559223 -0.025328128 0.15463375
0.099045083 -0.020905698 0.14149041
0.099318102 -0.020884069 0.14145963
-0.075944997 -0.036227081 0.16647071
-0.087910414 -0.24688086 0.79766214
-0.085167818 -0.24870624 0.80348688
0.10034873 -0.020426391 0.14099196
-0.070636056 -0.24021874 0.78435385
0.0063126762 -0.242356 0.80050451
-0.075427666 -0.036122799 0.1679035
-0.084243573 -0.24755639 0.8095296
0.098539673 -0.020215848 0.14169204
-0.075874001 -0.035751764 0.16756772
-0.074609846 -0.0353861 0.16661136
0.096861593 -0.024033699 0.15394695
0.098617241 -0.024383442 0.15524226
0.098139897 -0.019950027 0.14162119
-0.077610873 -0.036197044 0.16957037
-0.075275905 -0.035421211 0.16748683
-0.061781425 -0.23822393 0.79333806
-0.018960204 -0.23212507 0.78013557
-0.0071659614 -0.24685998 0.82701302
0.0050002784 -0.24697004 0.82893312
0.09824571 -0.024109676 0.15523262
0.10017662 -0.01958809 0.14156903
-0.074900813 -0.034829423 0.16656743
-0.020624183 -0.22848701 0.77333945
0.095979005 -0.023315666 0.15336269
0.099113286 -0.023876734 0.15551172
0.10039418 -0.019301306 0.14151254
-0.068350427 -0.23472828 0.79112232
-0.014283874 -0.22925 0.78123128
-0.077439189 -0.035404712 0.1697678
-0.066715918 -0.23266397 0.78965437
-0.01599787 -0.22611865 0.77593756
-0.0092392014 -0.24074206 0.82269156
0.098671168 -0.023304801 0.15545799
-0.065270364 -0.23148808 0.79094648
-0.0093338201 -0.23969734 0.82443029
0.097994722 -0.018765949 0.1419508
0.098277792 -0.018747207 0.14192992
-0.08732976 -0.23377392 0.80002582
-0.086151965 -0.23530503 0.80504817
-0.041167147 -0.23160997 0.79948062
-0.02264099 -0.22313894 0.77512348
-0.021038432 -0.22337188 0.77608192
-0.0094499812 -0.23753461 0.82263613
0.097517468 -0.022622041 0.15495194
0.099376038 -0.022740444 0.15558247
0.097772658 -0.018553415 0.14206922
0.098693155 -0.018517671 0.14208184
0.099426135 -0.018427473 0.14189582
-0.077322207 -0.034653269 0.17009452
-0.076715812 -0.034396015 0.16935612
-0.031364623 -0.23027684 0.80152088
-0.01467947 -0.22263911 0.77942699
-0.005952734 -0.2408991 0.83897984
0.013852606 -0.22877151 0.80297238
0.098679155 -0.018264024 0.14209962
-0.074909687 -0.033334754 0.16710405
-0.041044679 -0.22567105 0.79034716
-0.035820693 -0.22203062 0.7793715
-0.009597891 -0.23774624 0.83357871
-0.0060266363 -0.24032302 0.84236485
0.1012382 -0.02242228 0.15666455
0.10122969 -0.022298664 0.15626593
0.098896168 -0.017976627 0.14204085
0.099185333 -0.017959476 0.14202631
-0.074917756 -0.033054717 0.16709509
-0.039134063 -0.22057162 0.77905822
-0.0061068642 -0.23956238 0.84519404
0.0045859935 -0.24014795 0.84860212
0.099920914 -0.017523432 0.14155941
-0.074760586 -0.032646317 0.16669255
-0.081051953 -0.23301269 0.81849825
-0.071304403 -0.22698973 0.80027109
0.095477521 -0.021111349 0.15345515
-0.078049295 -0.034036968 0.17168544
-0.074725315 -0.032542571 0.16726564
-0.05467324 -0.22328952 0.79559737
-0.050951775 -0.2203505 0.78649855
-0.0045463997 -0.23647577 0.84607655
0.0056978543 -0.23127438 0.83050233
0.099428549 -0.017180398 0.14206021
-0.078504696 -0.033875369 0.17203036
-0.078386419 -0.03399625 0.17244616
-0.07645902 -0.033377491 0.17068562
-0.075664751 -0.032979324 0.16948748
-0.046231542 -0.21903679 0.78786075
0.097128361 -0.020857602 0.1547181
0.10037296 -0.021162542 0.15619828
0.09829212 -0.0170052 0.14217304
-0.074544713 -0.032248296 0.16816151
-0.080869742 -0.22079064 0.7936269
-0.073361836 -0.22297007 0.80197597
-0.060972605 -0.22656377 0.8157444
-0.048887536 -0.2240034 0.80902219
-0.047270041 -0.22432625 0.81033391
-0.034608696 -0.21356115 0.77643865
0.0037039937 -0.22760844 0.82876384
0.10035944 -0.016455492 0.1415145
-0.082728565 -0.21982002 0.79520714
-0.046206422 -0.22655617 0.82318532
-0.040398378 -0.22010373 0.80247205
-0.0031419359 -0.23063427 0.84325165
0.097821698 -0.016473008 0.14205927
0.099615522 -0.016385771 0.14203508
-0.078335628 -0.033697657 0.17435372
-0.076246038 -0.032756772 0.17150097
-0.086673558 -0.22037201 0.80161595
-0.068072304 -0.22454089 0.81845856
-0.037389897 -0.22060153 0.8098228
-0.0013882993 -0.23080815 0.84961849
0.095840082 -0.019756326 0.15368751
0.098642133 -0.016254716 0.14232078
-0.076870896 -0.22444382 0.82213306
-0.070150629 -0.22431141 0.82270902
-0.038772065 -0.21541683 0.79734391
-0.07821203 -0.032390226 0.17189859
-0.077824302 -0.032309491 0.17168276
-0.076858111 -0.032626718 0.17291415
-0.072080478 -0.22338288 0.82465172
-0.050597735 -0.22648853 0.83856183
-0.046722457 -0.22336419 0.82849669
-0.038467664 -0.21015348 0.78468418
-0.024078503 -0.21525781 0.80432183
0.097812802 -0.015817076 0.14247189
-0.077023298 -0.032452505 0.173282
-0.052017801 -0.22234997 0.82968563
0.0018669335 -0.22614308 0.85111541
0.099437438 -0.015339549 0.14197709
-0.077534191 -0.032324508 0.17375945
-0.064961702 -0.22536461 0.84361678
-0.063296504 -0.22564766 0.84485871
-0.043178357 -0.21747121 0.81973875
-0.024431298 -0.21555784 0.81607217
0.098579973 -0.015237295 0.14238495
-0.077018581 -0.031648643 0.17249738
-0.076270767 -0.03192417 0.17357597
-0.059503652 -0.22173262 0.83749938
0.093953304 -0.018061895 0.15239294
0.097337566 -0.018620903 0.15487942
-0.077956282 -0.031627759 0.17328154
-0.07734067 -0.031791799 0.17395605
-0.076046251 -0.031668074 0.17373037
-0.072975792 -0.21905562 0.83160448
-0.067595631 -0.2177424 0.82786369
-0.066356428 -0.21975206 0.83511299
-0.050020777 -0.21375354 0.81670004
0.0031694169 -0.21912743 0.84411693
0.093841814 -0.017760772 0.15229653
-0.078025244 -0.031380106 0.17341602
-0.081945367 -0.21331267 0.81550997
-0.043668486 -0.21420141 0.82488066
-0.041922987 -0.21380545 0.82376552
-0.032784224 -0.20621429 0.79843533
0.098786734 -0.018271435 0.15588912
-0.077712841 -0.030468693 0.17125338
-0.071433067 -0.21566512 0.83118278
-0.0040097623 -0.21841276 0.85205573
-0.0021956256 -0.21898152 0.8543781
0.096670918 -0.017939391 0.15537861
0.10037 -0.01878681 0.15900274
0.099350266 -0.018156879 0.15659329
0.095368713 -0.016805403 0.15112972
0.099243402 -0.014131385 0.14225382
0.099611811 -0.014043994 0.1420036
-0.0041345474 -0.21641529 0.85080081
-0.00056310662 -0.21651159 0.85174096
0.096444778 -0.017710496 0.15554194
0.099109635 -0.013937466 0.14246587
0.099540122 -0.013776389 0.14196044
-0.077233583 -0.030521955 0.17358115
-0.083942458 -0.20368852 0.79739726
-0.077282913 -0.21463816 0.83803457
-0.051963408 -0.20673232 0.81376344
0.0010490909 -0.21390377 0.8485648
0.10157124 -0.018338574 0.1597008
0.098837957 -0.013708821 0.14253235
0.099322543 -0.013650259 0.1424026
-0.076822199 -0.030130887 0.17328174
-0.072332382 -0.21324676 0.83967543
-0.061254151 -0.20939572 0.82756245
-0.05945522 -0.20885344 0.82589668
0.0011257272 -0.2150459 0.85871434
0.004491969 -0.21213116 0.84869218
-0.077296272 -0.029582404 0.17224932
-0.081304029 -0.20190424 0.80251545
-0.066634282 -0.20877118 0.83018225
-0.035059225 -0.19992042 0.80320823
0.10346957 -0.019572813 0.16670203
0.1054676 -0.019786658 0.16782859
0.09965457 -0.012967271 0.1418598
-0.10030559 -0.042012136 0.21514829
-0.077437185 -0.02938547 0.17255545
-0.076054007 -0.029586259 0.17353722
-0.078919075 -0.20859107 0.83327067
-0.066940628 -0.20805386 0.83337271
-0.061256345 -0.2053024 0.8242141
-0.037312422 -0.20308448 0.82019913
-0.035343774 -0.20025916 0.81012088
0.097804226 -0.016032146 0.15379514
0.099540971 -0.012776906 0.14209069
-0.076772764 -0.029400915 0.17379692
-0.065378986 -0.20660737 0.83422869
-0.05387 -0.19966799 0.81046981
-0.046272267 -0.20448634 0.82971013
-0.044763859 -0.20589514 0.83520991
-0.039319824 -0.20339794 0.82688922
-0.0063611111 -0.21101631 0.86099577
-0.0045456062 -0.21134833 0.86254907
-0.0027819853 -0.2105142 0.85975921
0.10546292 -0.019304037 0.16834661
0.10204131 -0.017887171 0.16248003
0.099639505 -0.01254998 0.14222676
-0.077433541 -0.028793393 0.17248929
-0.065898851 -0.20680574 0.84088522
-0.0010724912 -0.20917265 0.8612805
0.099605523 -0.016820285 0.15917495
0.099196434 -0.016600208 0.15827827
0.098700769 -0.016251281 0.15688433
0.097867243 -0.015815858 0.1551059
0.099968508 -0.012206381 0.14196838
-0.098337159 -0.04051654 0.21402068
-0.098036431 -0.040548906 0.21419722
-0.07710778 -0.028844336 0.17382236
-0.075531602 -0.028524298 0.17289898
-0.075152442 -0.20137432 0.82483554
-0.066317037 -0.20654088 0.84591007
-0.050999738 -0.19799128 0.81642407
-0.033944745 -0.19526902 0.80922675
-0.0048188283 -0.20679834 0.8579495
0.20269687 -0.099797346 0.49176294
0.10512943 -0.018727448 0.1684653
0.095443927 -0.014694411 0.15151265
0.098441042 -0.012281722 0.1429532
0.098652489 -0.012245468 0.14285438
0.099173829 -0.012196125 0.14276211
