# .PCD v0.7 - Point Cloud Data file format
VERSION 0.7
FIELDS x y z
SIZE 4 4 4
TYPE F F F
COUNT 1 1 1
WIDTH 1387
HEIGHT 1
VIEWPOINT 0 0 0 1 0 0 0
POINTS 1387
DATA ascii
0.13402309 0.012950124 0.33147192
0.13380647 0.012861253 0.32919583
0.2549333 0.02116492 0.54173678
0.29177147 0.022114137 0.56603068
0.10070244 0.0059925797 0.15338498
-0.2237519 0.018763226 0.4574917
-0.18788671 0.020740818 0.50571096
-0.17640753 0.020662215 0.50379616
-0.17528521 0.021044619 0.51311958
-0.12597854 0.03028238 0.73836017
-0.11986275 0.030332193 0.73957425
0.016961556 0.021451585 0.5230419
0.030177273 0.020554263 0.50116509
0.031314243 0.020597555 0.50222045
0.037304983 0.020352237 0.49623767
0.039997663 0.019593114 0.47772676
0.0553146 0.018895667 0.46072468
0.065712206 0.019055303 0.46461561
0.06034166 0.014811927 0.36115086
0.091003731 0.020746021 0.50584114
0.09226083 0.020544551 0.50092643
0.10017028 0.020853834 0.5084672
0.10987001 0.021046493 0.51316345
0.085595973 0.014261073 0.34772003
0.10313641 0.01422028 0.34672406
0.1103113 0.013729784 0.33476374
0.13332412 0.013452692 0.32800892
0.24223812 0.021305408 0.51947844
0.10034045 0.0062479568 0.15233767
0.10175054 0.006294786 0.15348239
0.10290541 0.0063457089 0.15472549
0.10135075 0.005618013 0.13698064
-0.079334348 0.0067328326 0.15673062
-0.2165678 0.021460051 0.49956471
-0.18677033 0.021594919 0.50270581
-0.1795222 0.02300695 0.53557527
-0.11944794 0.031660207 0.73701483
0.016174752 0.022938127 0.53397292
0.0182357 0.022662492 0.52756029
0.020278264 0.021257747 0.49485677
0.09529034 0.021477325 0.4999693
0.095683493 0.021326777 0.4964644
0.096722253 0.021321852 0.49634978
0.096049897 0.015061475 0.35061249
0.10908447 0.014697316 0.34213629
0.11005635 0.014347378 0.33399004
0.12808658 0.014209387 0.33077788
0.13057138 0.014096025 0.3281388
0.13126992 0.014095678 0.32813156
0.13525954 0.014000493 0.32591566
0.16210189 0.016195027 0.37700269
0.16206305 0.016111081 0.37504792
0.26760343 0.022773288 0.53013611
0.2912381 0.024473649 0.56972069
0.10159147 0.0058812988 0.13691057
0.10176978 0.0058747083 0.1367567
0.10220498 0.0058661746 0.13655731
0.10237569 0.0058593065 0.13639593
-0.18286742 0.019225068 0.42815965
-0.17728022 0.022191284 0.49422157
-0.17621723 0.022596862 0.50325251
-0.14179897 0.03244042 0.72247785
0.050504901 0.020734088 0.46176645
0.068806909 0.020309849 0.4523195
0.066565506 0.019111359 0.42562488
0.063280955 0.017006252 0.37874293
0.085387096 0.01571147 0.34990957
0.097474881 0.015376794 0.34245488
0.11631518 0.01516124 0.33765316
0.12213901 0.015167484 0.33779219
0.12282114 0.015162558 0.33768257
0.13552664 0.014815673 0.32995784
0.13570011 0.014681845 0.32697713
0.13838628 0.014819835 0.33005026
0.2294085 0.022502648 0.50115371
0.23387967 0.022624334 0.50386357
0.25206468 0.023942498 0.53321952
0.2733486 0.024627874 0.54848492
0.27058882 0.024275023 0.54062843
0.28450936 0.025201136 0.56125116
0.10050935 0.0069190408 0.15409401
0.10139181 0.0061531183 0.13703614
0.1018273 0.0061440994 0.13683411
-0.077622302 0.0071535348 0.15270342
-0.18757841 0.020574313 0.43918976
-0.18171591 0.021318244 0.4550685
-0.18331166 0.02324741 0.49625155
-0.18376578 0.025682755 0.54823548
0.035487704 0.023447495 0.50052518
0.038536426 0.022126902 0.47233117
0.039222702 0.021946035 0.46847102
0.040049016 0.021850642 0.46643302
0.042754617 0.021705784 0.46334213
0.045174003 0.021918563 0.46788576
0.049061891 0.022322545 0.4765085
0.065967619 0.020902328 0.44619295
0.062344298 0.018177684 0.38802809
0.09383861 0.023867641 0.50949281
0.08588516 0.016487451 0.35195065
0.086764745 0.016229924 0.34645155
0.10377929 0.016112329 0.34394231
0.11595856 0.015967401 0.34084728
0.12404878 0.015433059 0.32944223
0.13049881 0.015530395 0.33151773
0.1306072 0.015376239 0.32822898
0.13726856 0.015494596 0.33075625
0.2301911 0.02355711 0.50286317
0.26212484 0.025179353 0.53748953
0.27283669 0.025756638 0.5498153
0.274964 0.025517913 0.54471749
0.10133299 0.0073017245 0.15586743
0.10228835 0.0064023901 0.13666859
0.10244177 0.0063576419 0.13571104
-0.080275863 0.0078707552 0.16131534
-0.18699078 0.022970388 0.47079822
-0.18627773 0.023386234 0.4793205
-0.17758693 0.02429972 0.49804425
0.033188324 0.024303745 0.49812695
0.043340664 0.022397749 0.45905989
0.050168056 0.022825599 0.46782944
0.063207835 0.021480238 0.44025567
0.061575793 0.018698774 0.38324496
0.061195381 0.017869927 0.36626035
0.094455771 0.024734784 0.50696057
0.10502094 0.023932509 0.49051544
0.086085662 0.017062448 0.34970948
0.086259499 0.01694971 0.34739897
0.09214206 0.016670676 0.34167925
0.096530765 0.016927995 0.34695384
0.099442996 0.016793612 0.34420013
0.11964954 0.016338222 0.33486614
0.12363811 0.016585203 0.33992872
0.12330575 0.016254067 0.33314198
0.12581466 0.016210429 0.33224618
0.13106366 0.016244978 0.33295271
0.13478763 0.016179278 0.33160985
0.13910708 0.016524151 0.33867493
0.2313406 0.024657499 0.50537461
0.10304407 0.0075109652 0.15394443
0.10060728 0.0066923164 0.13716464
-0.076150641 0.0076004616 0.14980845
-0.19206363 0.02453373 0.48357052
-0.18544111 0.024893451 0.49066031
-0.18228862 0.025182405 0.49635395
-0.17711473 0.025050728 0.49376035
-0.17413883 0.026025474 0.51297277
0.05413783 0.023292158 0.45909625
0.055845335 0.02318622 0.4570094
0.08886648 0.019868124 0.39160767
0.08705914 0.018588673 0.36638883
0.087685265 0.018555442 0.36573419
0.13147555 0.017037958 0.3358227
0.23190367 0.02558285 0.50424987
0.25827527 0.027719315 0.54635757
0.25521046 0.026903788 0.53028375
0.27305809 0.027678868 0.54556197
0.27487671 0.027280852 0.5377143
0.10092836 0.0079023214 0.15575726
0.10259212 0.0078512598 0.15475157
0.10164126 0.0069695469 0.13737331
-0.07900238 0.0083992686 0.15944104
-0.07987161 0.0085284486 0.16189352
-0.18666214 0.024235964 0.46006781
-0.18636715 0.024325807 0.46177337
-0.19407827 0.025603453 0.4860273
-0.18283403 0.026073899 0.49495864
-0.14864866 0.027173387 0.51583028
0.023363009 0.024849674 0.4717187
0.02812982 0.025515277 0.48435503
0.057292696 0.023467405 0.44547865
0.062519439 0.023286331 0.44204143
0.098046951 0.026217788 0.49768931
0.1462642 0.01856578 0.35243213
0.25822055 0.028645985 0.54378313
0.26079616 0.028294867 0.53711903
0.26066878 0.027912391 0.52985942
0.26387876 0.028133981 0.53406394
0.10228086 0.0072197206 0.13705002
0.10265835 0.0071440302 0.13561392
-0.077400222 0.0083878217 0.15355787
-0.07693474 0.0084447805 0.15460116
-0.18519607 0.024933064 0.4564541
-0.1856561 0.026681574 0.48846689
0.049899202 0.024443055 0.4474842
0.055874351 0.024546912 0.44938681
0.056655589 0.024469625 0.44796985
0.057538431 0.02443785 0.4473893
0.059247203 0.024354182 0.44585633
0.10998029 0.028058846 0.51367879
0.088041812 0.0209946 0.38435334
0.089013293 0.020462546 0.37461278
0.16054586 0.020809293 0.38095856
0.26722604 0.029800279 0.54555833
0.10167182 0.0083235782 0.15238082
0.10206039 0.0074914703 0.13714743
0.1026302 0.0074266028 0.13596052
-0.075178668 0.0083662458 0.14789642
-0.074836016 0.0085435733 0.15103255
-0.18717599 0.025297085 0.4471992
-0.19071487 0.027457833 0.48539904
-0.18518291 0.027103733 0.47913843
-0.18063654 0.02798607 0.49473467
-0.17273439 0.028076537 0.49633589
0.037345845 0.025893243 0.4577387
0.040154159 0.025811793 0.45629871
0.059650961 0.025392964 0.44889477
0.059040632 0.020248033 0.35794288
0.060330909 0.020167902 0.35652566
0.09757527 0.028639046 0.50628012
0.11355808 0.028576538 0.50517398
0.10208844 0.0077603064 0.13718517
0.10250282 0.007747333 0.1369554
0.10282639 0.0077275606 0.13660739
-0.21098566 0.025805272 0.44102576
-0.19187576 0.025770653 0.44043493
-0.18507938 0.026140433 0.44675297
-0.18492161 0.026528737 0.45338929
-0.18749234 0.028074456 0.47980723
-0.18443112 0.028553018 0.48798791
-0.18430009 0.028859179 0.49321976
-0.18336941 0.028878745 0.49355221
-0.169029 0.029134398 0.49792048
-0.16936898 0.02956523 0.50528473
-0.17415912 0.032920443 0.56262618
-0.15728055 0.031468105 0.53780645
-0.14751227 0.034272876 0.58574152
0.037632514 0.026988843 0.46125248
0.04152425 0.026330873 0.45000815
0.045253702 0.026831219 0.45856038
0.046615224 0.027052671 0.46234366
0.047735091 0.02712746 0.46362212
0.063427448 0.025849743 0.44178531
0.065833792 0.025322407 0.4327746
0.10806874 0.029831776 0.50984025
0.085498214 0.021439375 0.36641133
0.15155172 0.021257538 0.36330158
0.154009 0.020854181 0.3564091
0.23455985 0.02970447 0.50766629
0.25124207 0.030819219 0.52671635
0.2693055 0.032030333 0.54741514
0.27974117 0.032843433 0.56131166
0.10052441 0.009047389 0.15462391
0.10081881 0.0090146428 0.15406376
0.10165982 0.0090016695 0.15384148
0.10279191 0.0079678828 0.13617504
-0.073056564 0.0089524118 0.14808014
-0.21510985 0.026824489 0.44369984
-0.19134218 0.026816234 0.44356275
-0.19012974 0.02746262 0.45425624
-0.18271387 0.027225697 0.45033616
-0.18512565 0.028028043 0.4636077
-0.17073379 0.029659167 0.49058759
-0.16978149 0.030236522 0.50013721
-0.15595973 0.035340175 0.58455682
0.043732278 0.030044347 0.49695918
0.044228327 0.029664578 0.49067834
0.048367221 0.027268017 0.45103604
0.058672104 0.02712968 0.44874659
0.066978201 0.026249841 0.43419713
0.11245656 0.030535121 0.50507629
0.10450155 0.027840517 0.46050656
0.086121261 0.022729719 0.37596926
0.094125517 0.023525266 0.38912702
0.23146866 0.03071335 0.50802618
0.23511122 0.030763786 0.50885957
0.24585286 0.031874374 0.52723002
0.25451437 0.032403301 0.5359782
0.25973326 0.032482881 0.53729498
0.098687209 0.0092378985 0.15280263
0.099508688 0.0092536472 0.15306169
0.1001462 0.0092822993 0.15353733
0.10248718 0.0082785524 0.13693444
-0.1879435 0.026401984 0.42310566
-0.19289511 0.027903233 0.44716257
-0.1911124 0.028062522 0.44971454
-0.18862607 0.028121771 0.45066363
-0.18615989 0.028332816 0.45404616
-0.1889656 0.030011393 0.48094669
-0.18586035 0.029843016 0.47824654
-0.18424852 0.030768644 0.49308184
-0.18003379 0.030589651 0.49021435
-0.17698044 0.030972127 0.4963434
-0.17070195 0.031576887 0.50603479
-0.14913541 0.036035333 0.57748318
0.016553221 0.034099922 0.54646748
0.017361689 0.033408161 0.53538072
0.018149586 0.032764621 0.52506936
0.04509129 0.029802637 0.47760245
0.049765047 0.027324421 0.43788797
0.056130301 0.027694475 0.44381639
0.067783266 0.030838298 0.49419603
0.058211785 0.022913082 0.36719251
0.094964728 0.030409757 0.48733076
0.11037416 0.031850647 0.51042277
-0.1978571 0.02893931 0.44975173
-0.19673374 0.029057389 0.45158634
-0.18693674 0.029337464 0.45594072
-0.18541662 0.029561205 0.45941788
-0.18643188 0.030531581 0.47449794
-0.18587174 0.030606302 0.47565961
-0.17706473 0.031952355 0.49657956
-0.16869447 0.031975251 0.49693504
-0.17505744 0.034484062 0.53592438
-0.17579451 0.03485731 0.5417257
-0.15466261 0.036142241 0.56169569
-0.15287939 0.036005083 0.5595631
-0.15036276 0.035691638 0.55469143
-0.14960301 0.036667772 0.56986141
-0.14815907 0.036914892 0.57370293
0.016352044 0.034735069 0.53982556
0.023127545 0.03451528 0.53641027
0.033728719 0.033653479 0.5230161
0.04923334 0.028409131 0.44151306
0.063989207 0.027452422 0.42664391
0.097914636 0.031637315 0.49168292
0.10532989 0.032632388 0.50714654
0.091385521 0.024309503 0.37779969
0.14988974 0.02300244 0.35748583
0.23021448 0.032511879 0.50527334
0.2554462 0.034152579 0.53077328
0.25534856 0.033110257 0.51457375
0.099503361 0.0098159481 0.15255177
0.10234847 0.008824273 0.13714048
-0.20686376 0.029865077 0.4505254
-0.18615136 0.02933247 0.44249183
-0.18201107 0.031744432 0.47887677
-0.17146026 0.032459639 0.48966739
-0.16958985 0.033116363 0.49957275
-0.17458645 0.034972753 0.52757829
-0.1629447 0.036402613 0.5491479
-0.15300506 0.034937095 0.52703857
-0.14960818 0.035197951 0.53097475
-0.14458914 0.038716197 0.58404791
0.014215909 0.036221404 0.54641473
0.020355273 0.034740269 0.52407008
0.026354443 0.032471158 0.48984027
0.099086978 0.034080911 0.51412392
0.11077601 0.034297854 0.51739544
0.15462428 0.024199333 0.36505598
0.22732863 0.034363899 0.51839393
0.23167227 0.034350857 0.51819658
0.25278136 0.035447154 0.53473526
0.25223887 0.034589238 0.52179199
0.097908527 0.0096963421 0.14627232
-0.076772049 0.010437011 0.15296026
-0.075670272 0.010331281 0.15140995
-0.21979168 0.031209329 0.45738986
-0.21576969 0.031052534 0.45509237
-0.21227573 0.030827684 0.45179668
-0.21006191 0.03092828 0.45327052
-0.19917002 0.031194896 0.45717838
-0.17740041 0.034152299 0.5005213
-0.17244911 0.033810828 0.49551615
-0.17577203 0.036243048 0.53116095
-0.1620222 0.037528463 0.55000043
0.015271394 0.037011467 0.54242307
0.046485055 0.03518907 0.51571512
0.046673432 0.034513339 0.50581115
0.064240687 0.032464288 0.47578114
0.071103476 0.03482984 0.51044887
0.066855088 0.025356403 0.37161183
0.10769622 0.035021454 0.51325804
0.15367655 0.024882002 0.3646583
0.097512051 0.010302142 0.15098301
0.10181133 0.010546974 0.15457077
-0.078903385 0.010939301 0.15587936
-0.075787209 0.01064209 0.1516439
-0.21172571 0.0314808 0.44858509
-0.20568942 0.031584449 0.45006254
-0.19947636 0.03213308 0.4578816
-0.19390844 0.03186154 0.4540109
-0.18366082 0.033165205 0.47258675
-0.18087187 0.033969287 0.48404536
-0.17950355 0.033906221 0.48314679
-0.17037797 0.0356711 0.50829512
-0.17301203 0.036455061 0.51946563
-0.17851977 0.038606443 0.55012393
0.015138987 0.03773604 0.53771961
0.020049321 0.036225423 0.51619327
0.065504819 0.03404643 0.48514399
0.11212783 0.036389571 0.51853269
0.085109614 0.02559714 0.364746
0.14496525 0.024263438 0.34574085
0.23410866 0.036400326 0.51868671
0.24096115 0.036263719 0.51673967
0.24897571 0.036466997 0.51963657
0.099860914 0.01060525 0.15111913
0.097069964 0.010209802 0.14548391
0.10272256 0.0096595725 0.13764195
0.1030376 0.0096064983 0.13688782
-0.21474205 0.03237417 0.44887784
-0.20710443 0.031790707 0.44079015
-0.20783393 0.032195728 0.44640413
-0.20021527 0.032983992 0.45733407
-0.19856191 0.032872155 0.45578253
-0.18935786 0.032628987 0.45241219
-0.18677218 0.034284256 0.47536379
-0.18362471 0.034456309 0.47774869
-0.18176264 0.03488284 0.48366266
-0.17992841 0.03472827 0.4815203
-0.17953753 0.039641272 0.54963994
-0.14206319 0.036923911 0.51196378
-0.15384923 0.041589171 0.57664621
-0.14617905 0.042956799 0.59561223
0.017883716 0.037314437 0.51737767
0.024056086 0.036610607 0.50761855
0.044475656 0.033223342 0.46065307
0.07524208 0.036704682 0.50892365
0.099211335 0.037542615 0.52054185
0.084147938 0.025773082 0.35735151
0.16136478 0.027476426 0.38096967
0.22487777 0.037533458 0.52041471
0.22732756 0.037026592 0.51338708
0.23128599 0.036957767 0.51243275
0.10096835 0.0099280616 0.13765679
0.10167811 0.0099399937 0.13782121
0.10200766 0.0099434629 0.13786854
0.10278172 0.0099044731 0.13732794
-0.07407245 0.011024773 0.14884953
-0.2136519 0.034146056 0.46101689
-0.20574602 0.034472268 0.46542317
-0.19196925 0.033458184 0.45173091
-0.19030312 0.034558296 0.4665837
-0.17999335 0.035474487 0.47895446
-0.1793745 0.035554755 0.48003814
-0.17850778 0.035586532 0.48046687
-0.16105942 0.040202878 0.54279411
-0.16375399 0.041172076 0.55587941
0.023718636 0.037070159 0.5004974
0.04413921 0.036269687 0.48969012
0.044064976 0.034569256 0.46673161
0.068954282 0.03723583 0.50273383
0.077458605 0.03825165 0.51644969
0.092782862 0.037749846 0.50967544
0.10082637 0.038322899 0.51741099
0.10003526 0.037609637 0.50778174
0.10785504 0.037687477 0.5088321
0.11326378 0.03841538 0.51865923
0.088819571 0.027685944 0.37379774
0.22724381 0.038569257 0.5207386
0.23202729 0.037542477 0.50687456
0.10210112 0.010220832 0.13799493
-0.075953126 0.0115519 0.15197593
-0.069147341 0.01074671 0.14138137
-0.073591948 0.011487518 0.15112911
-0.20465529 0.033108734 0.43557772
-0.20579976 0.035558365 0.4678064
-0.18980922 0.033950135 0.44664806
-0.191824 0.035195522 0.46303326
-0.19021386 0.035824288 0.47130439
-0.16439705 0.041515145 0.54617417
-0.15269946 0.045700453 0.60123593
-0.14982665 0.045221336 0.59493148
0.035956122 0.039745685 0.5228948
0.056056414 0.025832329 0.33985046
0.056856107 0.025865769 0.34028921
0.099472195 0.037564538 0.49419963
0.10754131 0.03817929 0.50228709
0.21933347 0.038581885 0.50758415
0.09747608 0.011322262 0.14895554
0.10334554 0.010436039 0.13729687
-0.076007411 0.011958033 0.1533965
-0.079139993 0.012896011 0.16542716
-0.22521982 0.03806017 0.48823017
-0.1929227 0.036681093 0.4705404
-0.18787271 0.037073769 0.47557774
-0.17271645 0.042044699 0.53934497
-0.16424067 0.042840801 0.54955667
-0.16064818 0.042511955 0.54533637
-0.14794795 0.046188522 0.59250021
0.014949067 0.041392349 0.53097504
0.041817456 0.037966441 0.48702884
0.059639357 0.037392624 0.47966793
0.068805799 0.039106376 0.50165099
0.063298576 0.027428001 0.35184297
0.09648791 0.039465055 0.50625235
0.13922344 0.026286749 0.33720359
0.22291572 0.039056007 0.50100523
0.10063154 0.011948736 0.15327702
0.10138786 0.010744421 0.13782719
-0.07952635 0.013106501 0.1640363
-0.21285038 0.038471159 0.48149392
-0.20389408 0.037394706 0.46802202
-0.19403388 0.035939038 0.44980252
-0.1900247 0.038022291 0.47587606
-0.18738949 0.037900742 0.47435448
-0.17429402 0.04348705 0.54427153
-0.15755238 0.043044701 0.5387361
-0.15149118 0.045007031 0.56329554
-0.1493724 0.047390547 0.59312767
0.015189251 0.043106377 0.53950644
0.02696687 0.040047545 0.50122285
0.029885214 0.04111477 0.51458037
0.047058735 0.038100131 0.47685066
0.058176715 0.037385408 0.46790436
0.061786715 0.037150636 0.46496695
0.072489925 0.040951528 0.51253736
0.055674233 0.027686361 0.34651372
0.16431546 0.031153131 0.38990349
0.22134098 0.040328521 0.50473994
0.22883385 0.039756022 0.49757499
-0.21167198 0.039571896 0.48350394
-0.19691725 0.037176445 0.45423597
-0.17911781 0.041612133 0.50843304
-0.16929464 0.045388188 0.5545696
-0.14984514 0.045966722 0.5616383
-0.14214644 0.048674162 0.59471917
-0.13848941 0.048729107 0.59539133
0.030558379 0.043063778 0.52617109
0.037474558 0.040798619 0.49849325
0.041922059 0.039959989 0.48824736
0.046533618 0.039446115 0.48196819
0.064296149 0.038973447 0.47619215
0.059859838 0.031325601 0.38274795
0.079581484 0.03663912 0.44766986
0.091852926 0.040816519 0.49871165
0.097212523 0.039528467 0.48297387
0.098260336 0.03953471 0.4830502
0.085099019 0.029577579 0.36139035
0.090055667 0.030470669 0.372302
0.10081527 0.011282232 0.13784981
0.10099559 0.011269466 0.13769384
-0.079918958 0.013812204 0.16484606
-0.082068987 0.01437388 0.17154983
-0.2270837 0.040495928 0.48331329
-0.22468266 0.041000299 0.48933297
-0.18286625 0.036421344 0.43468302
-0.18573104 0.039607901 0.47271442
-0.18183832 0.03942107 0.47048491
-0.17624775 0.045507237 0.54312241
-0.16308169 0.045721475 0.54567879
-0.15853566 0.045091949 0.53816527
-0.138381 0.042438414 0.50649661
-0.1534723 0.047814719 0.57066202
-0.13288583 0.048764352 0.58199602
0.041649513 0.040643353 0.48507297
0.047017507 0.039919473 0.47643301
0.053616997 0.036764067 0.43877378
0.072724111 0.039501548 0.47144619
0.094335817 0.041011956 0.48947147
0.087036103 0.030690942 0.3662917
0.089701675 0.031071959 0.37083867
0.22429484 0.041836083 0.49930772
0.22854382 0.041832477 0.49926472
0.10293628 0.011556757 0.13792834
-0.17857251 0.03961144 0.46203479
-0.18094184 0.046877157 0.54678357
-0.16952483 0.047945008 0.55923897
-0.16001227 0.046232507 0.53926504
-0.15055726 0.048379585 0.56430763
-0.14587681 0.048427317 0.56486541
-0.14463507 0.048415802 0.56473112
-0.14207008 0.050507795 0.5891313
0.039860677 0.040816519 0.47609058
0.044414897 0.041266084 0.48133492
0.053313248 0.038070019 0.44405532
0.06612125 0.041329838 0.48207864
0.056399692 0.030500432 0.35576168
0.08095295 0.02974339 0.3469322
0.089783743 0.011997855 0.13994332
0.10129574 0.011839953 0.13810317
-0.079419479 0.01393285 0.15891169
-0.079227097 0.01432816 0.16341913
-0.079961382 0.014524983 0.16566402
-0.19143945 0.038718142 0.4416002
-0.19126198 0.041114703 0.46893474
-0.19069169 0.041208085 0.46999955
-0.19247743 0.042036861 0.47945204
-0.18890965 0.043093055 0.49149895
-0.15888414 0.046947714 0.53546286
-0.14392659 0.04886356 0.55731386
-0.1375706 0.050919965 0.58076775
-0.13292949 0.050570928 0.57678801
0.059943438 0.040197261 0.45846993
0.067841597 0.042701423 0.48703161
0.069134422 0.042857591 0.48881266
0.058292504 0.032238882 0.36770117
0.05815186 0.030130029 0.3436487
0.083474144 0.040203504 0.45854095
0.09056396 0.042134058 0.48056012
0.092040122 0.042340662 0.48291618
0.10001814 0.042222653 0.48157135
0.083383985 0.031046985 0.35410717
0.16853288 0.035062943 0.39991099
0.10013177 0.013372215 0.15251583
0.10276121 0.013503476 0.15401354
0.10275581 0.012106638 0.13808194
-0.07959906 0.014274116 0.15927121
-0.079485111 0.014314909 0.15972619
-0.17645623 0.042565096 0.47494501
-0.18074688 0.045703575 0.50996321
-0.17601888 0.05061214 0.56473446
-0.1462298 0.050329912 0.56158447
-0.13945049 0.051369738 0.57318819
-0.1351943 0.051149949 0.57073611
-0.13547358 0.05172231 0.57712239
-0.13346259 0.051422879 0.57378012
-0.13348243 0.052393325 0.58460903
0.045468647 0.039577585 0.44160962
0.056877006 0.039634749 0.44224653
0.068913907 0.043668192 0.48725307
0.091297954 0.042930435 0.47902191
0.10514358 0.043150362 0.48147535
0.087573409 0.032735761 0.36526769
0.14768164 0.031728126 0.3540242
0.14992429 0.032045595 0.35756797
0.10196856 0.013652706 0.1523378
0.1024326 0.012407389 0.13844283
0.10261863 0.012394137 0.13829465
0.1032379 0.012291876 0.13715409
-0.079725012 0.014544755 0.15884398
-0.081552505 0.015539831 0.16971204
-0.19014387 0.045298412 0.49470997
-0.17601089 0.051355723 0.5608629
-0.17474462 0.051335879 0.56064618
-0.1649258 0.049817771 0.54406732
0.021870432 0.048869666 0.53371072
0.022700008 0.048208643 0.52649325
0.054042052 0.039799035 0.43465
0.060102742 0.033802919 0.36916587
0.059389338 0.032547053 0.35545114
0.098773465 0.0439994 0.4805235
0.10430382 0.044166736 0.48235089
0.095179476 0.013405446 0.14640246
0.10119997 0.013977737 0.15265195
0.10204033 0.012664707 0.13831227
-0.078608461 0.014964001 0.16002645
-0.079537384 0.015273908 0.16333906
-0.17463636 0.044465613 0.47551781
-0.1752694 0.046805978 0.50054568
-0.17468482 0.051699001 0.55287206
-0.15134583 0.048392631 0.51751339
-0.13922082 0.053044427 0.56726062
0.052825369 0.041889228 0.44796625
0.069443665 0.044566348 0.47659454
0.085333943 0.043833308 0.46875685
0.092004091 0.044639193 0.47737348
0.090596169 0.036306042 0.38825926
0.13621183 0.030377982 0.32486418
0.1015815 0.014236514 0.15224567
0.10169811 0.012927647 0.13824886
0.10305708 0.012912869 0.13809027
-0.080816247 0.015772799 0.16523999
-0.20042703 0.041666389 0.43650681
-0.18357404 0.042297579 0.44311899
-0.18460408 0.04534205 0.47501385
-0.17861885 0.045891032 0.48076546
-0.17728487 0.046348225 0.48555472
-0.17004253 0.052076064 0.5455603
-0.16437069 0.051396307 0.53843969
-0.15223247 0.050425239 0.52826685
-0.13828242 0.047204893 0.49452987
0.026969088 0.049827207 0.52200067
0.047632378 0.043261506 0.4532167
0.069061331 0.046609916 0.48829538
0.070342809 0.046767958 0.48995212
0.079268806 0.042563986 0.44591102
0.084148727 0.044123307 0.46224624
0.10439105 0.044328313 0.46439362
0.090078853 0.036514867 0.38253814
0.091057844 0.036579732 0.38321748
0.10015432 0.014561614 0.1525501
0.10133781 0.014638346 0.15335432
0.10331013 0.013175878 0.13803379
0.10365657 0.013107819 0.13732046
-0.18708396 0.044442996 0.45630008
-0.1779522 0.049802508 0.51132858
-0.16839926 0.051911294 0.53297836
-0.16353066 0.052175205 0.53568792
-0.1525341 0.051554348 0.52931333
-0.14277139 0.048981223 0.50289536
-0.14481024 0.055534024 0.57017303
-0.13959344 0.054919899 0.56386834
0.023229945 0.049998429 0.51333797
0.026049409 0.051227584 0.52595848
0.054018725 0.042316034 0.43446213
0.061162442 0.044829495 0.460269
0.069056384 0.04684788 0.48099193
0.077114619 0.04225082 0.43379307
0.09301988 0.046493225 0.47735047
0.15206678 0.035872851 0.36831057
0.15686043 0.036813188 0.37796426
0.10293566 0.013472534 0.13832378
-0.082562603 0.016993001 0.17105323
-0.18293285 0.046761993 0.47071359
-0.17564945 0.047238402 0.47550863
-0.17067802 0.050263796 0.50596374
-0.1607134 0.053042695 0.53393602
-0.15044677 0.058847472 0.59236646
-0.12814984 0.053744234 0.54099697
0.018442236 0.053002872 0.53353584
0.021824297 0.050285652 0.50618273
0.054053016 0.043188103 0.43473855
0.093137793 0.047481433 0.47795543
0.097054161 0.047901858 0.48218688
0.10341888 0.045273993 0.45573562
0.087808236 0.037044488 0.37289557
0.14762405 0.033938754 0.34163317
0.10209076 0.013747128 0.13838053
0.10243836 0.013754135 0.13845061
-0.21406795 0.046571206 0.4597939
-0.18575466 0.043400258 0.42848682
-0.19264102 0.045684844 0.45104325
-0.18075663 0.047633991 0.47028676
-0.16322498 0.054538742 0.53845662
-0.1455496 0.051928014 0.51268142
-0.14617586 0.055941891 0.55231011
-0.13958411 0.056619912 0.55900443
-0.1252498 0.054043666 0.53356886
0.01889284 0.052137047 0.5147447
0.024247115 0.051823463 0.51164937
0.031794365 0.051648356 0.50992048
0.035671204 0.050958887 0.50311351
0.068510339 0.048333105 0.47718894
0.069642484 0.048411082 0.47795877
0.072013378 0.048632536 0.48014414
0.082606435 0.045428149 0.4485082
0.098945051 0.048755471 0.4813585
0.091019854 0.038113173 0.37628812
0.1000136 0.01542959 0.15233558
-0.078467205 0.016562169 0.16043702
-0.21188287 0.04741608 0.45931855
-0.19593723 0.047122821 0.45647657
-0.19284475 0.046845593 0.45379114
-0.18921487 0.047394015 0.45910373
-0.1920491 0.048354611 0.46840999
-0.18467838 0.054780312 0.53065586
-0.16625378 0.050557192 0.48974565
-0.17351685 0.053438697 0.51765937
-0.16452432 0.056028128 0.54274273
-0.13230003 0.055167712 0.53440779
-0.12265836 0.05494196 0.53222132
0.03170485 0.052491702 0.5084855
0.10362261 0.049962495 0.48398429
0.10578493 0.049521878 0.47971705
0.081069827 0.036197674 0.35064524
0.15909739 0.039574254 0.38335431
0.10141507 0.015791947 0.15297621
0.10152498 0.014288893 0.13841563
-0.080222204 0.017480722 0.16620433
-0.21736953 0.048003286 0.45640942
-0.19112954 0.04902944 0.46616715
-0.18927079 0.0490642 0.46649739
-0.18891482 0.049231257 0.46808559
-0.19004788 0.050056707 0.47593406
-0.18553899 0.049938351 0.47480822
-0.1705811 0.053867586 0.51216692
-0.16984151 0.057311878 0.54491538
-0.16603562 0.056806814 0.54011226
-0.14719068 0.054122202 0.51458788
-0.14745039 0.058126643 0.55266285
-0.11816926 0.054432873 0.51754194
-0.11468507 0.055422049 0.52694619
0.018738043 0.053695116 0.51052684
0.022765102 0.052910391 0.50306576
0.028992157 0.052504119 0.49920312
0.037721209 0.052774481 0.50177425
0.05480919 0.0516956 0.49151587
0.073084451 0.048486706 0.46100661
0.063134573 0.039742492 0.37786686
0.085018449 0.048549701 0.46160439
0.087638617 0.049471721 0.47037169
0.088114664 0.03865473 0.36752522
0.16219375 0.04047893 0.38486895
0.16228677 0.040297788 0.38314644
0.16736883 0.041144393 0.39119667
0.10325732 0.01622472 0.15426315
0.10275434 0.014564528 0.13847767
-0.21000648 0.048993573 0.45736986
-0.099211358 0.023363061 0.21810126
-0.19992523 0.048212528 0.45007947
-0.19754323 0.048101109 0.44903824
-0.19774634 0.048622962 0.45391047
-0.19172195 0.04881819 0.45573312
-0.18716478 0.048395544 0.4517864
-0.19056894 0.049789466 0.46479988
-0.17789656 0.051291481 0.47882155
-0.18045886 0.0529439 0.49424821
-0.17078896 0.055644471 0.51945788
-0.13709851 0.052925169 0.49407256
-0.13897796 0.058128029 0.54264259
-0.12589023 0.054946676 0.51294476
0.069344059 0.050979558 0.47591075
0.070417911 0.0510207 0.47629398
0.071468346 0.051043943 0.47651073
0.062614299 0.041197676 0.38459283
0.088445574 0.050850242 0.47470304
0.10037259 0.052307088 0.48830289
0.10042322 0.051795017 0.48352197
0.16368905 0.041397482 0.38645712
0.16396248 0.041258313 0.38515922
0.16724953 0.041875213 0.39091778
0.1019089 0.014839955 0.13853538
0.10345087 0.014806446 0.13822208
0.10361494 0.014787645 0.13804697
-0.096414872 0.023335936 0.21396418
-0.20224929 0.049420521 0.45313123
-0.19843629 0.050420381 0.46229869
-0.18667376 0.052387916 0.48033977
-0.18143971 0.052064478 0.47737321
-0.17164826 0.058459654 0.53600931
-0.12257033 0.055929888 0.51281542
-0.11645221 0.056150924 0.51484179
0.019721601 0.055378065 0.50775594
0.022680167 0.054661814 0.5011884
0.024722107 0.054440502 0.49915928
0.030318925 0.054915875 0.50351751
0.032572914 0.05508779 0.50509322
0.055429731 0.052212249 0.47872883
0.062808603 0.041530341 0.38078681
0.10332672 0.052634828 0.48260257
0.15822788 0.041581888 0.38125911
0.10122589 0.016815813 0.15418212
-0.076652169 0.01747434 0.15741384
-0.21731916 0.051112555 0.46043661
-0.20171709 0.049930163 0.44978502
-0.20137583 0.050814305 0.45775005
-0.2041795 0.05228385 0.47098804
-0.18648648 0.049970541 0.45014939
-0.18400431 0.050344344 0.45351666
-0.18637617 0.051263452 0.46179557
-0.1864085 0.051545259 0.46433479
-0.18800761 0.053409211 0.48112568
-0.16757937 0.057326034 0.51641029
-0.17183849 0.059968047 0.54020882
-0.13510723 0.058075789 0.52316314
-0.11681935 0.057879105 0.52139181
0.033002917 0.054987542 0.4953438
0.047920346 0.051665977 0.4654215
0.092941701 0.053532772 0.4822385
0.096225716 0.053639755 0.48320201
0.15803857 0.04249135 0.38277429
0.16714075 0.043151543 0.38872159
0.10136943 0.017139873 0.1544008
0.10132049 0.017020753 0.15332782
-0.076280028 0.017850779 0.15803713
-0.20545028 0.051015496 0.45165154
-0.18854684 0.054500513 0.48250544
-0.18319413 0.056017302 0.4959335
-0.17548794 0.055926003 0.49512541
-0.17304111 0.061445363 0.5439896
-0.16993167 0.062439051 0.55278605
-0.15830573 0.060262069 0.53351396
0.019408172 0.056441057 0.4996857
0.030782502 0.055764217 0.4936929
0.050370481 0.053056013 0.46971706
0.054634999 0.054301053 0.48073938
0.064183898 0.043952778 0.38912451
0.089978255 0.053929608 0.47745174
0.1000371 0.054405261 0.48166266
0.1219667 0.036380414 0.3220844
0.10295891 0.015672619 0.13875337
-0.19230618 0.055932246 0.48680073
-0.18005724 0.055050187 0.47912458
-0.18240163 0.05640845 0.49094725
-0.16975732 0.056741808 0.49384749
-0.16949923 0.059233692 0.5155353
-0.16833544 0.059601739 0.51873994
-0.12935616 0.059521817 0.5180437
-0.12429594 0.059221134 0.51542652
0.019061305 0.056386668 0.49075577
0.025094001 0.055806536 0.48570734
0.030495454 0.05619498 0.48908904
0.040811315 0.054612003 0.47531077
0.092513382 0.055152588 0.48001593
0.09716212 0.055463605 0.4827233
0.10025888 0.055464506 0.48273078
0.10643088 0.055454794 0.48264614
0.10750119 0.055474777 0.48281986
0.092866734 0.044111788 0.38392347
0.15773274 0.043894779 0.38203365
0.15837507 0.043846492 0.38161406
0.16234705 0.044262197 0.38523275
0.10192864 0.017780293 0.15474893
0.10277376 0.01769801 0.15403254
0.1011989 0.015945548 0.13878015
0.10149853 0.015945964 0.13878417
-0.18402985 0.053848162 0.46086341
-0.17997856 0.055018552 0.47088093
-0.17091033 0.058093965 0.49720174
-0.17423277 0.065314934 0.55900389
-0.14178492 0.05970164 0.51096141
-0.13711584 0.059570935 0.50984305
-0.13445753 0.060833387 0.52064759
-0.12477318 0.059923507 0.51285958
0.016827555 0.056881323 0.48682347
0.024954328 0.05643516 0.48300442
0.031385198 0.05686412 0.48667613
0.065141715 0.054641001 0.46764934
0.068748802 0.055128999 0.47182584
0.095450759 0.056611102 0.48451045
0.099667877 0.056653701 0.48487481
0.15591931 0.043897137 0.37569675
0.10083742 0.018063489 0.15459713
0.10130028 0.018087078 0.15479945
0.10211726 0.01799779 0.15403546
0.10413232 0.016164225 0.13834238
-0.18622001 0.052052338 0.43820238
-0.17756882 0.055809449 0.46983081
-0.17156431 0.057847816 0.48699191
-0.17229679 0.058808479 0.4950785
-0.13628776 0.061666675 0.5191415
0.037410904 0.055932943 0.47087121
0.041005328 0.055350866 0.46597096
0.067115515 0.055529304 0.46747312
0.093111657 0.057387915 0.48311985
0.10478403 0.056444526 0.47517812
0.1594107 0.04403922 0.37074378
0.10406651 0.016422722 0.13825482
-0.077429153 0.018866044 0.15626593
-0.21026869 0.055287458 0.457941
-0.21255504 0.059195187 0.49030814
-0.18629125 0.054289814 0.44967818
-0.18301049 0.056853574 0.47091338
-0.17818309 0.056919068 0.4714562
-0.17129493 0.065453134 0.54214305
-0.15238427 0.061558586 0.50988495
-0.1492254 0.061604306 0.51026267
-0.14014763 0.061930168 0.51296282
-0.13237177 0.063458547 0.52562159
-0.1205679 0.061450496 0.50898916
0.014227599 0.061011061 0.5053488
0.017657477 0.058081616 0.48108572
0.025825495 0.057951812 0.48000926
0.02935271 0.058852606 0.48747119
0.031185132 0.05838209 0.48357385
0.034145571 0.058143154 0.48159552
0.038198855 0.056525283 0.4681938
0.039969392 0.056200597 0.4655053
0.099158682 0.058851909 0.48746619
0.083223611 0.044697884 0.37022844
0.084167555 0.043548517 0.3607088
0.090150334 0.044995375 0.37269327
0.12761095 0.039352246 0.32595146
0.10093765 0.018683165 0.15475073
-0.077006996 0.019231243 0.15676628
-0.20624693 0.05865252 0.47811416
-0.17805468 0.062763251 0.51162297
-0.17095865 0.062170979 0.50679576
-0.16819425 0.061950844 0.50500023
-0.1667261 0.064298354 0.5241372
-0.12409114 0.063125536 0.51457709
0.026937401 0.05907343 0.481545
0.046172652 0.057396241 0.46787217
0.067081898 0.056477688 0.46038529
0.069440894 0.054468807 0.44401008
0.068492837 0.053000789 0.43204364
0.072791718 0.048483513 0.39521971
0.083916187 0.043717172 0.3563669
0.13563679 0.041592639 0.33904764
0.15683334 0.045653347 0.37214908
0.16000041 0.04610749 0.37585187
0.161796 0.046392072 0.37817127
0.10120004 0.018971218 0.15464611
0.10411066 0.019203216 0.15653776
0.10221607 0.017046144 0.13895303
-0.079356931 0.020045105 0.16085051
-0.07923799 0.020458106 0.1641652
-0.19993009 0.05529169 0.44368595
-0.18696186 0.058347329 0.46820602
-0.17873256 0.060648497 0.48667142
-0.17739581 0.060547277 0.48585886
-0.17840044 0.063106664 0.50639671
-0.17064732 0.063041449 0.50587302
-0.14958088 0.066663206 0.53493559
-0.14779307 0.066888958 0.53674746
-0.14534046 0.066816188 0.53616387
0.029081222 0.060186446 0.48296279
0.036396284 0.058666326 0.4707652
0.040037155 0.058109298 0.46629483
0.045396928 0.058595356 0.47019547
0.049972724 0.055847261 0.44814384
0.052098386 0.056073222 0.44995737
0.055981159 0.05610916 0.45024568
0.062102102 0.057317708 0.45994294
0.069677591 0.056290094 0.45169678
0.071326524 0.053888746 0.432428
0.12492033 0.041109916 0.32988432
0.15566231 0.046265252 0.37125355
-0.078705445 0.020546772 0.16234308
-0.21498469 0.059258461 0.46821183
-0.18008214 0.059298977 0.46853209
-0.17998961 0.059935093 0.47355804
-0.17161413 0.064387783 0.50873888
-0.16912246 0.065528892 0.51775509
-0.15333967 0.062265538 0.49197125
-0.15509379 0.063853577 0.50451821
0.022444736 0.059942447 0.4736163
0.044277653 0.05935628 0.46898443
0.066379979 0.057658277 0.45556828
0.06469132 0.045510292 0.3595849
0.085335068 0.047593683 0.37604585
0.10091382 0.019581182 0.15471397
0.10151138 0.019632798 0.15512204
0.10201719 0.019666376 0.15538734
-0.077710859 0.020329898 0.15819933
-0.078707702 0.020862991 0.16234766
-0.079124175 0.021254417 0.16539429
-0.18705711 0.058325615 0.45386857
-0.17488088 0.059128586 0.46011665
-0.1717508 0.065428995 0.50914431
-0.172336 0.066924065 0.5207777
-0.16814688 0.066587314 0.51815861
-0.15320906 0.066353232 0.51633728
-0.15241057 0.071131088 0.55351698
-0.12255117 0.066485122 0.51736212
0.017355567 0.06076616 0.4728601
0.036362827 0.060441338 0.47033229
0.042919025 0.059771989 0.46512344
0.06508632 0.058257695 0.4533399
0.071719751 0.048357315 0.37629893
0.086350985 0.048900124 0.38052261
0.13169329 0.043227233 0.33637854
0.10219465 0.017852791 0.1389239
-0.19633307 0.056838311 0.43570316
-0.18587142 0.058228765 0.44636196
-0.18844153 0.061234109 0.46939903
-0.18948475 0.061902557 0.47452375
-0.18902096 0.062419277 0.47848436
-0.17606452 0.059757281 0.45807919
-0.17364475 0.059265677 0.45430979
-0.17461552 0.069282606 0.53109628
-0.12558587 0.066752985 0.51170456
0.043906417 0.060666952 0.46505213
0.063672557 0.058728836 0.45019463
0.12969162 0.045187898 0.34639466
0.15829122 0.048751723 0.37371337
0.15970841 0.048696641 0.37329158
0.16249995 0.049057677 0.37605917
0.10194189 0.019931328 0.15278584
-0.078677423 0.021677062 0.16372895
-0.1851133 0.058855657 0.44454095
-0.18569253 0.06978552 0.52709574
-0.18217137 0.069303282 0.52345204
-0.1733167 0.068457164 0.51706213
-0.16527942 0.067432389 0.5093227
-0.14879696 0.072105907 0.54462093
0.03540818 0.062359612 0.47100607
0.038012091 0.061684158 0.46590492
0.041585859 0.061082799 0.46136266
0.052764595 0.059240978 0.44745091
0.053244684 0.058715653 0.44348422
0.06090299 0.059718985 0.45106184
0.067392051 0.059489969 0.44933185
0.068280749 0.0594276 0.44886038
0.073921986 0.058576208 0.4424305
0.085437179 0.04847699 0.3661499
0.12876457 0.045795016 0.3458932
0.13165383 0.044766363 0.3381238
0.095653825 0.019739361 0.14909276
0.10226833 0.018406212 0.1390238
0.10242355 0.01742189 0.13158838
-0.077807777 0.021752404 0.16191919
-0.1911706 0.065364607 0.48655874
-0.18417622 0.068976656 0.51344651
-0.1730912 0.069817364 0.51970345
-0.16194442 0.067486644 0.5023542
-0.15275121 0.06817577 0.50748312
0.038743358 0.062165566 0.46274549
0.039543122 0.061869256 0.46054012
0.045406207 0.060500517 0.45035198
0.053706355 0.059043393 0.43950528
0.086549632 0.051724393 0.38502461
0.12930965 0.046664238 0.34735733
0.13090225 0.04696922 0.34962791
0.13202891 0.046315968 0.34476456
0.13359779 0.045104157 0.33574444
0.10178046 0.02082636 0.15502672
0.10181944 0.018703355 0.13922291
-0.079259701 0.022183027 0.16276865
-0.19374852 0.065773658 0.48261839
-0.19176225 0.066515923 0.4880645
-0.19227974 0.067060255 0.4920584
-0.18477978 0.071051031 0.52134162
-0.16369006 0.068745494 0.50442469
-0.15810198 0.073143229 0.5366931
-0.15749903 0.073396802 0.53855348
-0.14997071 0.071993172 0.52825433
0.044672668 0.061692484 0.45267248
0.063579574 0.061265189 0.44953692
0.084671177 0.049910668 0.36622179
0.087749839 0.050329499 0.36929575
0.1317223 0.046616923 0.34205469
0.13178071 0.045378406 0.3329666
0.17007646 0.053907409 0.39554912
0.099046171 0.020900594 0.15335834
0.10236123 0.018964142 0.13915049
0.10318175 0.018896569 0.13865444
0.10387988 0.018861812 0.13839982
-0.1811482 0.061716348 0.44647741
-0.1820682 0.069745354 0.50456291
-0.159052 0.068199843 0.49338183
0.040074565 0.062948905 0.4553943
0.064084068 0.061699837 0.44635862
0.064464688 0.061155923 0.44242328
0.16565056 0.05378836 0.38912451
0.1011126 0.021428276 0.15501909
0.10240123 0.019242205 0.13920459
0.10343314 0.019157704 0.13859408
0.10396381 0.019146325 0.13851166
-0.078302681 0.022151601 0.1580288
-0.079736322 0.023156319 0.16519767
-0.18330249 0.063328668 0.45178723
-0.18051416 0.070122764 0.50025624
-0.17320217 0.068499617 0.4886764
-0.15574691 0.069096401 0.4929342
-0.15202181 0.068368703 0.48774314
0.044605114 0.063356839 0.45198816
0.053509515 0.061381258 0.43789434
0.16421236 0.054071557 0.38574615
-0.18686487 0.065801546 0.46300635
-0.19139899 0.068856768 0.48450434
-0.18048453 0.069438569 0.48859814
-0.17256404 0.070904158 0.49891064
-0.15684736 0.071030281 0.49979782
-0.15981385 0.073373213 0.51628321
0.061838228 0.062137607 0.43722528
0.085924782 0.053812087 0.37864414
0.085389264 0.052977826 0.37277374
0.16348715 0.054306746 0.38212383
0.10360175 0.022209531 0.15627481
0.10234711 0.018687051 0.13149014
-0.077868208 0.022737836 0.15783288
-0.17954996 0.07002411 0.4860681
-0.18418385 0.072672367 0.50445026
-0.16516297 0.067951888 0.4716832
-0.16087931 0.071894303 0.4990502
0.049088098 0.063417614 0.44021016
0.063857518 0.063136362 0.4382565
0.05868407 0.046440497 0.32236385
0.15653153 0.053239446 0.36955881
0.1647999 0.055215929 0.38327771
0.10051482 0.022273427 0.1546092
0.10200486 0.020093393 0.13947655
0.10339927 0.019959703 0.13854857
0.10367297 0.019898651 0.13812426
-0.078459851 0.024161799 0.1654842
-0.16786353 0.067522094 0.46245882
-0.1627766 0.075732455 0.51869142
-0.16627674 0.078974582 0.54089648
-0.16523851 0.079588152 0.54509908
0.045168594 0.065410398 0.44799536
0.072549485 0.065928504 0.45154443
0.088286132 0.053765602 0.36824039
0.15087362 0.052537978 0.35983217
0.10277084 0.020339195 0.13930255
0.10318879 0.01935626 0.13257146
-0.076716654 0.023207242 0.15685771
-0.18808763 0.067872174 0.45874798
-0.18622808 0.067909293 0.45899802
-0.16479526 0.076648578 0.5180673
0.063927554 0.064911574 0.43873689
0.10353453 0.02046671 0.13833377
0.10379721 0.020460049 0.13828965
-0.07588128 0.023054751 0.1538054
-0.076582752 0.0238888 0.15936972
-0.17662391 0.066658072 0.4446969
-0.16970202 0.069263875 0.46208197
-0.16677137 0.078062549 0.52078021
0.046926312 0.065594107 0.43759936
0.066489421 0.066450641 0.44331327
0.087522373 0.057272889 0.3820858
0.086837158 0.055783503 0.37214962
0.088540681 0.055854544 0.37262389
0.11676177 0.048983444 0.32678425
0.10204573 0.020915233 0.13953219
0.10331496 0.020810472 0.13883315
-0.10865024 0.031526797 0.20763227
-0.1076951 0.031377912 0.20665129
-0.075490624 0.023539556 0.15502852
-0.077574745 0.024621701 0.16215549
-0.17934817 0.072463684 0.47723752
0.087885879 0.058805428 0.38728631
0.087472677 0.057446886 0.3783389
0.16121958 0.057216834 0.37682396
0.10146625 0.021190174 0.13955578
0.10173669 0.021184206 0.13951735
-0.074429013 0.023301177 0.15151818
-0.1943838 0.073291771 0.4765887
-0.18055274 0.073466599 0.47772565
0.046915438 0.065965414 0.42894804
0.1012167 0.02332879 0.15169884
-0.084059551 0.025752407 0.1653675
-0.19243486 0.074252501 0.47680765
-0.1862735 0.075894237 0.48735046
-0.18267688 0.074847341 0.4806281
-0.18084301 0.074515022 0.47849408
-0.18026184 0.074697904 0.47966903
-0.18138185 0.075592034 0.48540986
0.0875808 0.060102083 0.38594207
0.086604856 0.058333524 0.37458533
0.12031884 0.052128028 0.33473682
0.102375 0.024362369 0.15644173
0.10161806 0.021765308 0.13976432
0.10179979 0.021740332 0.13960406
-0.10835365 0.032648623 0.2070656
-0.10485615 0.031986628 0.20286773
-0.098351426 0.030127045 0.19107281
-0.19825022 0.076240219 0.48353472
-0.19942412 0.077093557 0.48894671
-0.19649446 0.07636115 0.48430178
-0.17882192 0.075026475 0.4758372
-0.1684451 0.073169731 0.46406114
0.088559233 0.062117487 0.39396453
0.11750911 0.052802235 0.33488527
0.16641231 0.061023552 0.38702738
0.16994084 0.062009398 0.39327911
0.10318264 0.024461716 0.15514216
0.10300353 0.020922933 0.13269787
-0.085210346 0.032166939 0.2015257
-0.16886382 0.074256107 0.46521446
0.061703239 0.053474218 0.33501545
0.11670364 0.052765604 0.33057642
0.12140168 0.050320063 0.31525463
0.17000189 0.062487476 0.3914839
-0.076989338 0.025884777 0.16021584
-0.077944659 0.026441185 0.16366
-0.086949386 0.032890748 0.20358038
-0.2011286 0.078843594 0.48801094
-0.1751381 0.075723849 0.46870053
-0.17355107 0.076794751 0.4753288
0.089589834 0.06500829 0.40237498
0.12529042 0.052564546 0.32535288
0.12459448 0.051698584 0.31999338
0.14138235 0.055039018 0.3406691
0.10401436 0.025267046 0.15639289
0.10296052 0.021371039 0.13227813
-0.076846078 0.02591683 0.15850778
-0.078246377 0.026742833 0.16355926
-0.1929536 0.075763464 0.46336931
-0.19949619 0.078736618 0.48155248
0.089122795 0.063615613 0.38907263
0.11534842 0.05509112 0.33693719
0.16070069 0.061414558 0.37561098
0.1020458 0.025413847 0.15543091
-0.087924786 0.028261567 0.17081666
-0.077108979 0.026431469 0.15975448
-0.20041986 0.073587589 0.44477266
-0.19934565 0.074249797 0.44877461
-0.19418088 0.077952236 0.47115314
-0.19287264 0.077830687 0.4704183
-0.18694875 0.078723297 0.47581333
0.087489657 0.061471794 0.37154272
0.087693922 0.061061013 0.3690604
0.11599115 0.055709131 0.33671239
0.13573125 0.056435924 0.34110591
0.10348096 0.023139806 0.13985965
-0.10535025 0.033978373 0.20298429
-0.076657511 0.026703566 0.15952541
0.091442354 0.06272655 0.37472352
0.11408859 0.057214059 0.34179246
0.1401366 0.056233898 0.33593705
-0.10640243 0.034716334 0.20501149
-0.18954122 0.081690967 0.48241165
0.088905059 0.06572412 0.38812217
0.13228334 0.059154741 0.34932819
0.10371134 0.023668043 0.13976738
-0.083406433 0.028342946 0.16547407
-0.074223347 0.026693853 0.15584621
-0.089100488 0.035378471 0.20654944
0.10215364 0.060117904 0.35098603
0.14287856 0.058968186 0.34427392
0.16349415 0.064806543 0.37835997
0.1036569 0.023996335 0.14009762
-0.083442166 0.028316718 0.16346547
-0.074862897 0.026987318 0.15579084
-0.078731224 0.029428834 0.16988589
0.085798003 0.064283855 0.37109539
0.086214744 0.06342344 0.36612853
0.097692087 0.068746738 0.39685839
0.12201059 0.059508633 0.34352884
0.13426861 0.058767755 0.33925271
0.14338729 0.060159944 0.34728879
0.162937 0.064997464 0.3752147
0.10259468 0.026981907 0.15576003
0.10445721 0.02729452 0.15756509
0.10338875 0.024276063 0.14013994
0.10279683 0.022940695 0.1324316
0.10306299 0.022937018 0.13240981
-0.089084253 0.030316791 0.17306904
-0.085125774 0.029212309 0.16676365
-0.080115326 0.031292718 0.17863975
0.086771309 0.06396874 0.36517751
0.098760873 0.06218062 0.35496938
0.10230042 0.061571006 0.35148999
0.12897682 0.05966286 0.34059668
0.13261057 0.059660014 0.34058085
0.13308761 0.05954783 0.3399401
0.14489076 0.061472975 0.35092998
0.10369233 0.027398933 0.15641148
-0.082700454 0.029183794 0.16477211
0.086027607 0.067782611 0.38270214
0.13303798 0.061530072 0.3473995
0.16253741 0.066621445 0.37614575
0.10245994 0.027913639 0.15760116
0.1027201 0.027892897 0.1574835
0.10325643 0.027856058 0.1572751
0.10361955 0.027863275 0.15731616
0.10289155 0.023412874 0.1321896
-0.093238376 0.03243494 0.18113968
-0.073457628 0.027617957 0.15423831
-0.18492113 0.080760553 0.45102465
-0.18858774 0.082793504 0.46237779
0.085889414 0.068416715 0.38208747
0.10281667 0.062339909 0.34815046
0.15938687 0.066375569 0.37068826
0.10438401 0.024973303 0.13946864
0.10325892 0.023689412 0.1322984
-0.093929298 0.032893524 0.18172731
0.095840164 0.071088769 0.39274573
0.10883615 0.063930102 0.35319611
0.15622444 0.066093624 0.36514866
0.10197778 0.028866811 0.15948087
0.102364 0.028593812 0.15797289
0.10478377 0.028609214 0.15805781
0.10183643 0.025427166 0.14047752
0.10327878 0.02395124 0.13232379
-0.095178954 0.033689208 0.18414509
-0.083287902 0.02997601 0.16384926
0.10668082 0.063779622 0.34861943
0.10794167 0.064085715 0.3502931
0.10158455 0.02868095 0.15677002
0.10408053 0.025441458 0.13906321
-0.11327849 0.037714396 0.20397972
-0.11197388 0.038011607 0.20558676
-0.11118576 0.037892833 0.20494404
-0.11050364 0.037809301 0.20449227
-0.072186299 0.02827787 0.15294181
0.08447776 0.06633082 0.3587521
0.15191938 0.065982617 0.35686892
0.15434594 0.066701643 0.36075792
-0.11334075 0.03699315 0.1979958
-0.11165419 0.038452566 0.20580737
-0.082107835 0.030435426 0.16289768
-0.081877261 0.030479202 0.16313191
-0.072482258 0.028692467 0.15356897
-0.071032107 0.028375413 0.15187201
0.094328471 0.071595155 0.38319445
0.15110984 0.066321179 0.35496715
0.15347353 0.067022234 0.35871878
0.15564445 0.067632265 0.36198452
0.1001518 0.029263509 0.1566253
0.10429972 0.029489748 0.15783635
0.10266699 0.02630548 0.14079319
0.10296088 0.026303677 0.14078362
0.10331699 0.02631776 0.14085881
0.10369016 0.026336007 0.14095677
0.1034437 0.024762673 0.13253525
-0.10387613 0.037939869 0.2009718
-0.10388313 0.038099851 0.20181958
-0.081655845 0.030844336 0.16338637
-0.071164787 0.029123578 0.15427051
0.086539887 0.071321115 0.37779665
0.152556 0.067314796 0.35657421
0.1042003 0.029768227 0.15768594
0.10439081 0.026482183 0.1402791
-0.11447652 0.037999533 0.19923571
-0.11320096 0.038728688 0.20305866
-0.11122017 0.039100409 0.20500731
-0.082592644 0.031252339 0.16385953
-0.075042345 0.029917734 0.15686202
-0.072060861 0.029251784 0.15337056
0.094070211 0.072885081 0.3821452
0.15222913 0.067862324 0.35581049
0.15586114 0.068794124 0.36069548
0.10447077 0.02669864 0.13998425
-0.074098811 0.030111782 0.15628633
-0.071533285 0.029467685 0.15294333
-0.071017638 0.029389568 0.15253803
0.08641313 0.074065879 0.38441715
0.15446089 0.068871066 0.35745528
0.10141703 0.030155143 0.15651125
-0.11215052 0.039916698 0.20510611
-0.088244341 0.033785157 0.17359993
-0.075818181 0.030435357 0.15638763
-0.07343626 0.030280229 0.15559021
0.14390758 0.067137606 0.34497687
0.14392778 0.066804737 0.34326631
0.10295473 0.027396919 0.14077516
0.10449494 0.027249355 0.14001672
-0.11634339 0.039948888 0.20324098
-0.11359315 0.040360849 0.20533672
-0.11343864 0.040462211 0.20585261
-0.081931621 0.032086387 0.16324027
0.08684922 0.071843453 0.36550525
0.14671977 0.068086892 0.34639382
0.10424339 0.031007508 0.15775129
