# .PCD v0.7 - Point Cloud Data file format
VERSION 0.7
FIELDS x y z
SIZE 4 4 4
TYPE F F F
COUNT 1 1 1
WIDTH 1386
HEIGHT 1
VIEWPOINT 0 0 0 1 0 0 0
POINTS 1386
DATA ascii
0.085924782 0.053812087 0.37864414
0.085389264 0.052977826 0.37277374
0.16348715 0.054306746 0.38212383
0.10360175 0.022209531 0.15627481
0.10234711 0.018687051 0.13149014
-0.077868208 0.022737836 0.15783288
-0.17954996 0.07002411 0.4860681
-0.18418385 0.072672367 0.50445026
-0.16516297 0.067951888 0.4716832
-0.16087931 0.071894303 0.4990502
0.049088098 0.063417614 0.44021016
0.063857518 0.063136362 0.4382565
0.05868407 0.046440497 0.32236385
0.15653153 0.053239446 0.36955881
0.1647999 0.055215929 0.38327771
0.10051482 0.022273427 0.1546092
0.10200486 0.020093393 0.13947655
0.10339927 0.019959703 0.13854857
0.10367297 0.019898651 0.13812426
-0.078459851 0.024161799 0.1654842
-0.16786353 0.067522094 0.46245882
-0.1627766 0.075732455 0.51869142
-0.16627674 0.078974582 0.54089648
-0.16523851 0.079588152 0.54509908
0.045168594 0.065410398 0.44799536
0.072549485 0.065928504 0.45154443
0.088286132 0.053765602 0.36824039
0.15087362 0.052537978 0.35983217
0.10277084 0.020339195 0.13930255
0.10318879 0.01935626 0.13257146
-0.076716654 0.023207242 0.15685771
-0.18808763 0.067872174 0.45874798
-0.18622808 0.067909293 0.45899802
-0.16479526 0.076648578 0.5180673
0.063927554 0.064911574 0.43873689
0.10353453 0.02046671 0.13833377
0.10379721 0.020460049 0.13828965
-0.07588128 0.023054751 0.1538054
-0.076582752 0.0238888 0.15936972
-0.17662391 0.066658072 0.4446969
-0.16970202 0.069263875 0.46208197
-0.16677137 0.078062549 0.52078021
0.046926312 0.065594107 0.43759936
0.066489421 0.066450641 0.44331327
0.087522373 0.057272889 0.3820858
0.086837158 0.055783503 0.37214962
0.088540681 0.055854544 0.37262389
0.11676177 0.048983444 0.32678425
0.10204573 0.020915233 0.13953219
0.10331496 0.020810472 0.13883315
-0.10865024 0.031526797 0.20763227
-0.1076951 0.031377912 0.20665129
-0.075490624 0.023539556 0.15502852
-0.077574745 0.024621701 0.16215549
-0.17934817 0.072463684 0.47723752
0.087885879 0.058805428 0.38728631
0.087472677 0.057446886 0.3783389
0.16121958 0.057216834 0.37682396
0.10146625 0.021190174 0.13955578
0.10173669 0.021184206 0.13951735
-0.074429013 0.023301177 0.15151818
-0.1943838 0.073291771 0.4765887
-0.18055274 0.073466599 0.47772565
0.046915438 0.065965414 0.42894804
0.1012167 0.02332879 0.15169884
-0.084059551 0.025752407 0.1653675
-0.19243486 0.074252501 0.47680765
-0.1862735 0.075894237 0.48735046
-0.18267688 0.074847341 0.4806281
-0.18084301 0.074515022 0.47849408
-0.18026184 0.074697904 0.47966903
-0.18138185 0.075592034 0.48540986
0.0875808 0.060102083 0.38594207
0.086604856 0.058333524 0.37458533
0.12031884 0.052128028 0.33473682
0.102375 0.024362369 0.15644173
0.10161806 0.021765308 0.13976432
0.10179979 0.021740332 0.13960406
-0.10835365 0.032648623 0.2070656
-0.10485615 0.031986628 0.20286773
-0.098351426 0.030127045 0.19107281
-0.19825022 0.076240219 0.48353472
-0.19942412 0.077093557 0.48894671
-0.19649446 0.07636115 0.48430178
-0.17882192 0.075026475 0.4758372
-0.1684451 0.073169731 0.46406114
0.088559233 0.062117487 0.39396453
0.11750911 0.052802235 0.33488527
0.16641231 0.061023552 0.38702738
0.16994084 0.062009398 0.39327911
0.10318264 0.024461716 0.15514216
0.10300353 0.020922933 0.13269787
-0.085210346 0.032166939 0.2015257
-0.16886382 0.074256107 0.46521446
0.061703239 0.053474218 0.33501545
0.11670364 0.052765604 0.33057642
0.12140168 0.050320063 0.31525463
0.17000189 0.062487476 0.3914839
-0.076989338 0.025884777 0.16021584
-0.077944659 0.026441185 0.16366
-0.086949386 0.032890748 0.20358038
-0.2011286 0.078843594 0.48801094
-0.1751381 0.075723849 0.46870053
-0.17355107 0.076794751 0.4753288
0.089589834 0.06500829 0.40237498
0.12529042 0.052564546 0.32535288
0.12459448 0.051698584 0.31999338
0.14138235 0.055039018 0.3406691
0.10401436 0.025267046 0.15639289
0.10296052 0.021371039 0.13227813
-0.076846078 0.02591683 0.15850778
-0.078246377 0.026742833 0.16355926
-0.1929536 0.075763464 0.46336931
-0.19949619 0.078736618 0.48155248
0.089122795 0.063615613 0.38907263
0.11534842 0.05509112 0.33693719
0.16070069 0.061414558 0.37561098
0.1020458 0.025413847 0.15543091
-0.087924786 0.028261567 0.17081666
-0.077108979 0.026431469 0.15975448
-0.20041986 0.073587589 0.44477266
-0.19934565 0.074249797 0.44877461
-0.19418088 0.077952236 0.47115314
-0.19287264 0.077830687 0.4704183
-0.18694875 0.078723297 0.47581333
0.087489657 0.061471794 0.37154272
0.087693922 0.061061013 0.3690604
0.11599115 0.055709131 0.33671239
0.13573125 0.056435924 0.34110591
0.10348096 0.023139806 0.13985965
-0.10535025 0.033978373 0.20298429
-0.076657511 0.026703566 0.15952541
0.091442354 0.06272655 0.37472352
0.11408859 0.057214059 0.34179246
0.1401366 0.056233898 0.33593705
-0.10640243 0.034716334 0.20501149
-0.18954122 0.081690967 0.48241165
0.088905059 0.06572412 0.38812217
0.13228334 0.059154741 0.34932819
0.10371134 0.023668043 0.13976738
-0.083406433 0.028342946 0.16547407
-0.074223347 0.026693853 0.15584621
-0.089100488 0.035378471 0.20654944
0.10215364 0.060117904 0.35098603
0.14287856 0.058968186 0.34427392
0.16349415 0.064806543 0.37835997
0.1036569 0.023996335 0.14009762
-0.083442166 0.028316718 0.16346547
-0.074862897 0.026987318 0.15579084
-0.078731224 0.029428834 0.16988589
0.085798003 0.064283855 0.37109539
0.086214744 0.06342344 0.36612853
0.097692087 0.068746738 0.39685839
0.12201059 0.059508633 0.34352884
0.13426861 0.058767755 0.33925271
0.14338729 0.060159944 0.34728879
0.162937 0.064997464 0.3752147
0.10259468 0.026981907 0.15576003
0.10445721 0.02729452 0.15756509
0.10338875 0.024276063 0.14013994
0.10279683 0.022940695 0.1324316
0.10306299 0.022937018 0.13240981
-0.089084253 0.030316791 0.17306904
-0.085125774 0.029212309 0.16676365
-0.080115326 0.031292718 0.17863975
0.086771309 0.06396874 0.36517751
0.098760873 0.06218062 0.35496938
0.10230042 0.061571006 0.35148999
0.12897682 0.05966286 0.34059668
0.13261057 0.059660014 0.34058085
0.13308761 0.05954783 0.3399401
0.14489076 0.061472975 0.35092998
0.10369233 0.027398933 0.15641148
-0.082700454 0.029183794 0.16477211
0.086027607 0.067782611 0.38270214
0.13303798 0.061530072 0.3473995
0.16253741 0.066621445 0.37614575
0.10245994 0.027913639 0.15760116
0.1027201 0.027892897 0.1574835
0.10325643 0.027856058 0.1572751
0.10361955 0.027863275 0.15731616
0.10289155 0.023412874 0.1321896
-0.093238376 0.03243494 0.18113968
-0.073457628 0.027617957 0.15423831
-0.18492113 0.080760553 0.45102465
-0.18858774 0.082793504 0.46237779
0.085889414 0.068416715 0.38208747
0.10281667 0.062339909 0.34815046
0.15938687 0.066375569 0.37068826
0.10438401 0.024973303 0.13946864
0.10325892 0.023689412 0.1322984
-0.093929298 0.032893524 0.18172731
0.095840164 0.071088769 0.39274573
0.10883615 0.063930102 0.35319611
0.15622444 0.066093624 0.36514866
0.10197778 0.028866811 0.15948087
0.102364 0.028593812 0.15797289
0.10478377 0.028609214 0.15805781
0.10183643 0.025427166 0.14047752
0.10327878 0.02395124 0.13232379
-0.095178954 0.033689208 0.18414509
-0.083287902 0.02997601 0.16384926
0.10668082 0.063779622 0.34861943
0.10794167 0.064085715 0.3502931
0.10158455 0.02868095 0.15677002
0.10408053 0.025441458 0.13906321
-0.11327849 0.037714396 0.20397972
-0.11197388 0.038011607 0.20558676
-0.11118576 0.037892833 0.20494404
-0.11050364 0.037809301 0.20449227
-0.072186299 0.02827787 0.15294181
0.08447776 0.06633082 0.3587521
0.15191938 0.065982617 0.35686892
0.15434594 0.066701643 0.36075792
-0.11334075 0.03699315 0.1979958
-0.11165419 0.038452566 0.20580737
-0.082107835 0.030435426 0.16289768
-0.081877261 0.030479202 0.16313191
-0.072482258 0.028692467 0.15356897
-0.071032107 0.028375413 0.15187201
0.094328471 0.071595155 0.38319445
0.15110984 0.066321179 0.35496715
0.15347353 0.067022234 0.35871878
0.15564445 0.067632265 0.36198452
0.1001518 0.029263509 0.1566253
0.10429972 0.029489748 0.15783635
0.10266699 0.02630548 0.14079319
0.10296088 0.026303677 0.14078362
0.10331699 0.02631776 0.14085881
0.10369016 0.026336007 0.14095677
0.1034437 0.024762673 0.13253525
-0.10387613 0.037939869 0.2009718
-0.10388313 0.038099851 0.20181958
-0.081655845 0.030844336 0.16338637
-0.071164787 0.029123578 0.15427051
0.086539887 0.071321115 0.37779665
0.152556 0.067314796 0.35657421
0.1042003 0.029768227 0.15768594
0.10439081 0.026482183 0.1402791
-0.11447652 0.037999533 0.19923571
-0.11320096 0.038728688 0.20305866
-0.11122017 0.039100409 0.20500731
-0.082592644 0.031252339 0.16385953
-0.075042345 0.029917734 0.15686202
-0.072060861 0.029251784 0.15337056
0.094070211 0.072885081 0.3821452
0.15222913 0.067862324 0.35581049
0.15586114 0.068794124 0.36069548
0.10447077 0.02669864 0.13998425
-0.074098811 0.030111782 0.15628633
-0.071533285 0.029467685 0.15294333
-0.071017638 0.029389568 0.15253803
0.08641313 0.074065879 0.38441715
0.15446089 0.068871066 0.35745528
0.10141703 0.030155143 0.15651125
-0.11215052 0.039916698 0.20510611
-0.088244341 0.033785157 0.17359993
-0.075818181 0.030435357 0.15638763
-0.07343626 0.030280229 0.15559021
0.14390758 0.067137606 0.34497687
0.14392778 0.066804737 0.34326631
0.10295473 0.027396919 0.14077516
0.10449494 0.027249355 0.14001672
-0.11634339 0.039948888 0.20324098
-0.11359315 0.040360849 0.20533672
-0.11343864 0.040462211 0.20585261
-0.081931621 0.032086387 0.16324027
0.08684922 0.071843453 0.36550525
0.14671977 0.068086892 0.34639382
0.10424339 0.031007508 0.15775129
0.10320976 0.027658472 0.14071271
-0.11642109 0.040371049 0.20337668
-0.11210074 0.040696219 0.20501509
-0.10800885 0.040313881 0.20308863
0.086735114 0.074468404 0.37514865
0.14911687 0.069532923 0.35028589
0.10517404 0.031491831 0.15864626
0.10214718 0.02797039 0.14090627
0.10253987 0.027995367 0.14103226
0.10319684 0.026463382 0.13331407
-0.11600587 0.04092662 0.2041759
-0.11573537 0.040985383 0.20446923
-0.11311715 0.04098684 0.20447618
-0.11243875 0.040899079 0.20403826
-0.10916936 0.040655982 0.20282555
0.080332547 0.070958823 0.35400116
0.084168285 0.072303839 0.36071184
0.084263608 0.07172884 0.35784268
0.09983556 0.031191843 0.15561074
0.10025919 0.031116916 0.1552368
0.10514158 0.031688444 0.15808778
0.10300216 0.028231109 0.14083995
-0.11579174 0.041247349 0.20379905
-0.11166349 0.041170619 0.20342025
-0.1113429 0.041374728 0.20442843
-0.07998684 0.032254353 0.15936542
-0.078687549 0.032705303 0.16159368
0.087292708 0.069948904 0.34561041
0.089793727 0.070171602 0.34671074
0.10276136 0.028521661 0.14092278
0.10381679 0.026920855 0.13301325
-0.11076888 0.041720502 0.20417535
-0.073847741 0.032116361 0.15717366
0.074570477 0.074128874 0.36277846
0.085896552 0.071301483 0.34894136
0.090418413 0.07075458 0.34626505
0.094337247 0.070365511 0.3443608
0.098820604 0.070413314 0.34459502
0.099707551 0.070519738 0.34511563
0.10452588 0.07078559 0.34641659
0.10427996 0.032350302 0.15831852
0.10478464 0.03240164 0.15857022
-0.10922226 0.041859325 0.20292379
-0.075466096 0.032252204 0.15635072
-0.074759111 0.032380134 0.15697122
0.074360415 0.073855385 0.35803336
0.078632288 0.07081119 0.34327546
0.084849767 0.07172551 0.34770784
0.086961903 0.07162866 0.34723884
0.10287142 0.071338736 0.34583327
0.13878492 0.068279207 0.33100101
0.14130901 0.069168344 0.33531153
0.15079162 0.071279347 0.3455452
0.099662185 0.032043792 0.15534045
0.10350034 0.029023534 0.14069897
-0.11079781 0.0423587 0.2034272
-0.11033271 0.042347115 0.20337169
-0.11013449 0.042438276 0.20380932
-0.083935641 0.034528047 0.16582082
-0.074593782 0.033058155 0.15876156
0.080845922 0.070846647 0.34024036
0.089166686 0.072286353 0.34715447
0.09106382 0.072615758 0.34873682
0.092901237 0.071732312 0.34449401
0.096031882 0.071871206 0.34516084
0.10426927 0.071955569 0.3455663
0.1114006 0.070394441 0.33806914
0.1404109 0.06973023 0.33487889
0.099501476 0.032293621 0.15508986
0.10206377 0.032797433 0.15750945
0.10303213 0.029335037 0.14088117
-0.10901055 0.042064611 0.20014593
-0.10999043 0.042778362 0.20354263
-0.10689618 0.043646548 0.20767334
0.086997837 0.073009267 0.34738258
0.10257125 0.072995946 0.3473196
0.10768366 0.071947798 0.34233248
0.11045418 0.071846299 0.34184936
0.11394925 0.071290106 0.33920303
0.1388354 0.070308417 0.33453202
0.14164911 0.070641845 0.33611852
0.14733794 0.072017863 0.34266579
0.10365617 0.029529361 0.14050265
-0.10964594 0.043039013 0.20290492
-0.10771008 0.043132115 0.20334394
-0.075146236 0.033170547 0.15638055
-0.074077584 0.033595342 0.15838332
0.036608785 0.06963671 0.32829863
0.07260289 0.068508774 0.32298103
0.073472358 0.068676114 0.32377025
0.075111546 0.068910331 0.32487389
0.087767735 0.07308919 0.34457532
0.096065313 0.073238902 0.345281
0.099797383 0.073815912 0.34800115
0.11836949 0.071992472 0.33940479
0.11883961 0.071838111 0.33867717
0.11916987 0.071601674 0.33756241
0.12649356 0.070854411 0.33403915
0.13689886 0.070331447 0.33157352
0.1486052 0.071531467 0.33723161
0.10425361 0.029801667 0.14049821
-0.11088987 0.04341108 0.20280057
-0.10825729 0.043572869 0.20355596
-0.1080869 0.04367971 0.20405547
-0.10773557 0.043714121 0.20421615
-0.077446915 0.032890193 0.15365055
0.045879014 0.07050281 0.32936314
0.052533139 0.07093288 0.33137202
0.062383078 0.069286771 0.32368171
0.065963909 0.069414705 0.32428002
0.0701079 0.068721071 0.32103929
0.1022881 0.074141361 0.3463608
0.11069664 0.073336169 0.34259972
0.1142648 0.072810292 0.34014267
0.12137204 0.072280392 0.33766702
0.12206625 0.071839429 0.33560708
0.12457468 0.072045617 0.33657032
0.12535252 0.071667857 0.33480537
0.13003796 0.071099453 0.33215043
0.13054676 0.070990257 0.33163956
0.13215743 0.070714131 0.33035025
0.14418106 0.072137475 0.33699906
0.10076004 0.033395674 0.15601201
0.10472661 0.030038241 0.14032726
0.10413164 0.028716262 0.13415131
-0.10758822 0.044050876 0.20393698
0.02846021 0.071596749 0.33146277
0.029670354 0.07110133 0.32916945
0.03300149 0.070701644 0.32731846
0.042314179 0.071067676 0.3290135
0.054545209 0.069625191 0.32233498
0.056893449 0.069129981 0.32004249
0.059420578 0.069687076 0.32262164
0.063288778 0.070153154 0.32477927
0.067332059 0.070026539 0.32419318
0.069123439 0.069736615 0.32285115
0.081215024 0.07004784 0.32429168
0.084836021 0.069606602 0.32224897
0.10520444 0.07478296 0.34621316
0.11093411 0.07416106 0.34333429
0.12218042 0.072988726 0.33790708
0.12514077 0.072611041 0.33615848
0.13032225 0.071902283 0.33287668
0.13578318 0.071406655 0.33058253
0.10167446 0.034345794 0.15900646
0.10179726 0.033933625 0.15709817
0.10315704 0.030556902 0.14146517
0.10337459 0.03053179 0.14134932
0.1041881 0.030328931 0.14040981
-0.11119832 0.044322696 0.20336474
-0.11005804 0.044213913 0.20286524
-0.10551426 0.045050737 0.20670511
-0.10527907 0.045139331 0.20711167
0.028592443 0.072576977 0.33300322
0.033083789 0.071515992 0.32813463
0.034569517 0.07168819 0.32892495
0.040946756 0.071775809 0.32932708
0.044843111 0.071256243 0.32694328
0.046848714 0.071118325 0.32631058
0.047714919 0.071370855 0.32746917
0.049239635 0.071552344 0.32830167
0.050530933 0.071393959 0.32757518
0.054290995 0.071736611 0.32914752
0.055684157 0.069100566 0.31705177
0.061549306 0.070382997 0.32293662
0.073210441 0.0703132 0.32261637
0.080062114 0.070274837 0.32243988
0.082819834 0.070275672 0.32244432
0.08462213 0.070056096 0.32143667
0.089262672 0.069924071 0.32083061
0.11413843 0.074525155 0.34194204
0.11541163 0.07440374 0.34138453
0.12740071 0.072103962 0.33083284
0.13272789 0.072309598 0.33177608
0.14252093 0.07296674 0.33479121
0.10167215 0.034310203 0.15742439
0.10376875 0.030744432 0.14106376
0.10449705 0.030516874 0.14001964
-0.077136315 0.033938754 0.15434335
-0.075802714 0.033785503 0.15364626
-0.073364563 0.034810062 0.15830575
0.053952888 0.071925871 0.32709756
0.065248244 0.071281567 0.32416764
0.073197484 0.070927955 0.32255921
0.087514102 0.070245147 0.3194539
0.094731942 0.073737442 0.33533624
0.1094948 0.07501287 0.34113643
0.11472577 0.075096123 0.34151468
0.12342148 0.074180491 0.33735093
0.12330464 0.073679864 0.33507398
0.12854889 0.07340277 0.33381411
0.10069024 0.034510422 0.15694292
0.10201801 0.034619417 0.15743896
-0.10748661 0.045015354 0.20292212
-0.10630877 0.046394017 0.2091372
-0.074068844 0.034655839 0.15622306
0.030387452 0.073053941 0.32931569
0.030962691 0.072751738 0.3279537
0.031674206 0.07277602 0.32806331
0.032267068 0.072532646 0.32696548
0.037818927 0.072458133 0.32662997
0.057486154 0.070884109 0.31953493
0.059391491 0.071533963 0.32246375
0.06333904 0.071322501 0.32151079
0.06808421 0.071254306 0.32120329
0.081680506 0.071137615 0.32067686
0.083838224 0.071223781 0.32106566
0.0862763 0.070971318 0.31992787
0.089887828 0.071670011 0.32307759
0.092095546 0.072870508 0.32848901
0.10185563 0.07651031 0.34489638
0.126177 0.074335754 0.33509424
0.12681986 0.07429295 0.33490083
0.12828434 0.073491432 0.33128849
0.1357488 0.07331647 0.33049873
0.10265058 0.031412046 0.14160088
-0.1113139 0.045556288 0.20357594
-0.10792588 0.045595486 0.20375159
-0.10608426 0.04689908 0.20957677
-0.08549767 0.038780443 0.17329717
-0.074910834 0.036172282 0.16164224
-0.074296504 0.036041852 0.16105947
0.027799306 0.07245224 0.32376581
0.04131756 0.073107362 0.32669353
0.076211154 0.071134143 0.31787571
0.087166376 0.071203381 0.31818485
0.09927877 0.076333188 0.34110811
0.10975715 0.076016203 0.33969173
0.12242281 0.075766727 0.33857724
0.12672777 0.074469239 0.33277899
0.13787131 0.073960699 0.33050647
0.14147972 0.074000664 0.3306852
0.10208594 0.035255119 0.15754372
0.10203261 0.035120942 0.15694375
-0.11113824 0.04605962 0.20405242
-0.11085421 0.04612289 0.20433298
-0.078206666 0.036573768 0.16202852
-0.076448403 0.035910521 0.15909013
-0.074921697 0.035993915 0.1594595
-0.075808473 0.036754217 0.16282816
-0.074157752 0.036287099 0.16075851
0.038293779 0.073300786 0.32473627
0.039574478 0.073102228 0.3238571
0.041006368 0.07318715 0.32423285
0.043153051 0.073302172 0.32474238
0.054767355 0.072143927 0.31961095
0.056354772 0.072428159 0.32087028
0.072237201 0.071854137 0.31832749
0.075407527 0.071634211 0.31735289
0.081425868 0.071558312 0.31701708
0.084553413 0.071338668 0.31604388
0.08508423 0.071217671 0.31550744
0.098356321 0.07628081 0.3379387
0.11817853 0.075562134 0.33475402
0.13452311 0.073927954 0.32751438
0.13772768 0.071945228 0.31873098
0.10378046 0.035680953 0.1580732
0.10359384 0.032067381 0.14206432
0.10432656 0.031736039 0.14059643
-0.10914407 0.046166319 0.20277837
-0.10898846 0.046469498 0.20411013
-0.10734283 0.046324152 0.20347187
-0.073621392 0.036334902 0.15959589
0.032110397 0.074078225 0.32537785
0.034266789 0.074229881 0.32604414
0.044476453 0.073826112 0.32427004
0.052964661 0.073105834 0.32110646
0.054155 0.07286045 0.3200289
0.068303108 0.072630607 0.31901932
0.069787793 0.072756872 0.31957349
0.072346784 0.072583012 0.31881034
0.073054619 0.072609238 0.3189255
0.12118721 0.075856917 0.33319053
0.12834793 0.076303706 0.3351528
0.12978834 0.075889386 0.3333329
0.13444948 0.07692574 0.33788487
0.13355696 0.074807793 0.32858196
0.13730475 0.07532271 0.33084393
0.13773769 0.074789897 0.32850343
0.1032662 0.035926893 0.15780346
-0.10662682 0.048164241 0.20976298
-0.083921179 0.039227508 0.1708419
0.025425328 0.077657804 0.33821177
0.030734181 0.074746467 0.32553297
0.034236714 0.074798219 0.32575831
0.040980734 0.074401386 0.32403001
0.043029353 0.074351296 0.32381132
0.043674905 0.074272066 0.32346666
0.045157805 0.074437186 0.32418567
0.052514751 0.074063517 0.32255837
0.05740042 0.073259927 0.31905845
0.059416398 0.073223226 0.31889832
0.075288229 0.072753124 0.31685114
0.079418957 0.0728148 0.31712005
0.10543519 0.076962642 0.33518443
0.11443511 0.075341307 0.32812351
0.12160598 0.077682085 0.33831778
0.1378337 0.075867876 0.33041656
0.10231034 0.036373615 0.15841259
0.1030786 0.036405735 0.1585526
0.10446441 0.032418847 0.14118892
-0.10856709 0.047269695 0.20413844
-0.10766231 0.047255538 0.20407739
-0.077363454 0.037445974 0.16171369
-0.077579945 0.03771925 0.16289394
-0.073908724 0.036759213 0.15874769
-0.073241524 0.036595412 0.15804031
0.025661055 0.076856293 0.33191094
0.034123838 0.075182989 0.32468435
0.035667356 0.075512387 0.32610688
0.036278881 0.07533478 0.32534012
0.044692144 0.075451195 0.32584268
0.052455921 0.074607015 0.32219705
0.063672334 0.074036673 0.31973362
0.066849209 0.07453084 0.32186821
0.067478791 0.074466459 0.32158986
0.07175082 0.07391075 0.31919026
0.076856583 0.073573716 0.31773502
0.07831908 0.073671952 0.31815875
0.084748462 0.073351085 0.31677288
0.085992694 0.072685964 0.31390041
0.10340051 0.077165224 0.33324465
0.10295673 0.036431059 0.15733087
0.10510256 0.036949027 0.15956758
0.10406626 0.036348846 0.15697539
-0.10897461 0.047653973 0.20408432
-0.10779846 0.047906712 0.20516689
-0.10436308 0.048346702 0.20705117
-0.07744348 0.037631419 0.16116104
-0.071077406 0.036145642 0.15479833
0.028833978 0.078413457 0.33581576
0.030701052 0.075930662 0.32518277
0.033025842 0.074897982 0.32076013
0.055028021 0.074984916 0.32113227
0.055924702 0.075267836 0.32234442
0.059309956 0.075192422 0.32202113
0.060869481 0.075419076 0.32299212
0.061357081 0.075170703 0.32192814
0.071788035 0.074570112 0.3193562
0.085199505 0.074959449 0.32102346
0.085734449 0.073650725 0.31541863
0.1201295 0.076225512 0.3264457
0.10110889 0.036798894 0.15759547
-0.10852078 0.048042968 0.20405103
-0.098666608 0.046682209 0.19827165
0.029593935 0.077301897 0.32832167
0.03011697 0.076845743 0.32638437
0.031209899 0.076108754 0.32325408
0.036115706 0.077745631 0.33020622
0.037816517 0.078345053 0.33275181
0.058014981 0.076838046 0.32635164
0.084565386 0.076878421 0.32652286
0.10513715 0.078163564 0.33198115
0.10285132 0.037371118 0.15872507
0.10499866 0.033316169 0.14150237
0.029164143 0.080632277 0.33966121
0.033199474 0.076545551 0.32244626
0.035729308 0.079094738 0.33318445
0.039131075 0.07877484 0.33183715
0.039976884 0.079044789 0.33297437
0.050894383 0.078322433 0.3299312
0.066693075 0.079502471 0.3349025
0.068499863 0.077497475 0.32645652
0.069365673 0.077685766 0.32724938
0.075266205 0.07728067 0.32554269
0.080772102 0.077893406 0.32812408
0.084833957 0.077759579 0.32756019
0.092491798 0.077139415 0.32494798
0.10165804 0.03761477 0.15845117
0.10308011 0.037763514 0.15907793
0.10274167 0.033744015 0.14214562
-0.1092099 0.048949867 0.20452501
-0.1087634 0.048945632 0.20450725
-0.10820998 0.049091116 0.20511554
-0.075604051 0.03799329 0.15874547
0.029159581 0.081279978 0.33960846
0.029383792 0.07991568 0.3339079
0.041693669 0.08025708 0.33533457
0.057263922 0.078995533 0.33006331
0.062429424 0.079284139 0.33126962
0.063196406 0.079358093 0.33157876
0.071256526 0.078866489 0.32952437
0.07263381 0.078832492 0.32938203
0.086203761 0.079010166 0.33012465
0.088516019 0.077331662 0.32311144
0.089346066 0.077452451 0.32361624
0.1036014 0.038139537 0.15935668
0.028322946 0.083759233 0.34714726
0.028653095 0.080516897 0.33370948
0.03025711 0.079115972 0.32790318
0.030881573 0.078920878 0.32709426
0.056898896 0.080116734 0.33205026
0.058236659 0.080004551 0.33158544
0.063473336 0.080353521 0.3330318
0.064139321 0.080296211 0.33279398
0.072061867 0.079618886 0.32998699
0.09648966 0.078832082 0.32672626
0.10275906 0.038389295 0.15910734
0.10413952 0.038271632 0.15862003
0.10429343 0.034407675 0.1426056
-0.10868628 0.049705796 0.20436239
0.036526401 0.081227042 0.33396119
0.040002294 0.08103855 0.33318582
0.051035356 0.080469102 0.33084533
0.052718826 0.080882102 0.3325431
0.053857181 0.08045911 0.33080396
0.059260592 0.080117285 0.32939813
0.061083563 0.080665156 0.33165091
0.061599102 0.080412693 0.33061305
0.066295028 0.080969863 0.33290359
0.073148109 0.079906173 0.32853007
0.073558502 0.079590373 0.32723215
0.075858042 0.079802178 0.32810271
0.087383159 0.078192353 0.32148415
0.10420766 0.038731463 0.15924235
0.1042686 0.034676719 0.14257175
-0.10635546 0.051296126 0.20922905
-0.076390132 0.039323803 0.16039582
0.02651309 0.081813902 0.33370644
0.026775509 0.08045911 0.3281804
0.04955988 0.081012391 0.33043683
0.057479165 0.080236405 0.32727212
0.058049165 0.08005783 0.32654366
0.05876068 0.080076359 0.32661942
0.061277524 0.080632485 0.32888722
0.062121961 0.08081647 0.32963789
0.07258527 0.080699846 0.32916224
0.073387541 0.080040142 0.32647181
0.080076374 0.080450781 0.32814655
0.081811756 0.080089957 0.32667464
0.089336976 0.078722604 0.32109758
0.09265314 0.078624852 0.3206985
0.094911158 0.079366557 0.32372418
0.096380971 0.079437532 0.32401335
0.097081155 0.078881063 0.32174361
0.10199963 0.039239094 0.16005017
0.10265583 0.038968731 0.1589475
0.10392842 0.034942087 0.14252317
0.10531409 0.034695938 0.14151956
-0.10857635 0.050449383 0.20415592
-0.10788307 0.050738961 0.20532757
-0.10590832 0.051703092 0.20922934
-0.095965691 0.048066974 0.19451502
-0.076794945 0.040025342 0.16197275
-0.074748114 0.039134957 0.15836959
-0.07254272 0.038681094 0.15653248
-0.071915902 0.038524441 0.15589879
0.04346275 0.080823474 0.32707259
0.043958846 0.080452032 0.3255696
0.051971409 0.081010312 0.32782879
0.076452896 0.079508923 0.32175276
0.076789461 0.079146981 0.32028809
0.080200925 0.079135671 0.32024255
0.10482788 0.035112202 0.14209054
0.10515421 0.03501875 0.14171202
-0.10717709 0.050803483 0.20398387
-0.10746244 0.051146757 0.20536253
0.026871026 0.07993295 0.32094356
0.037839375 0.081393063 0.32680619
0.045758124 0.080577329 0.32353103
0.047440447 0.08108905 0.32558572
0.052541532 0.080376066 0.32272294
0.053240158 0.080389597 0.32277676
0.056153301 0.080610007 0.32366201
0.062803522 0.079397157 0.31879231
0.064616896 0.07911472 0.31765813
0.071118362 0.07879559 0.31637689
0.07157021 0.07854937 0.31538811
0.072524443 0.078853935 0.31661138
0.073911011 0.078889243 0.31675318
0.077282421 0.078875437 0.31669739
0.079467088 0.079028487 0.31731209
0.082848594 0.079019465 0.31727573
0.094282694 0.078940652 0.31695938
0.10307651 0.039748944 0.15959866
0.10488926 0.039660558 0.1592436
0.10533349 0.039571896 0.158887
-0.10910688 0.050678879 0.20190756
-0.10827067 0.051305078 0.20440236
-0.10690141 0.051277049 0.20429052
-0.10406379 0.052264005 0.20822281
-0.081936821 0.042050388 0.16753124
-0.075675756 0.040062737 0.15961212
0.03171191 0.082441971 0.32845375
0.035247121 0.082500733 0.3286877
0.039118517 0.081782266 0.32582492
0.043030981 0.081279837 0.32382354
0.047225725 0.081352197 0.32411188
0.050633594 0.081262633 0.323755
0.052631307 0.081141919 0.32327434
0.053663325 0.080616318 0.32118025
0.05870882 0.080947526 0.32249954
0.067138508 0.079502329 0.31674179
0.069428563 0.079800166 0.3179287
0.080292255 0.079791494 0.31789401
0.0839094 0.079356849 0.31616265
0.089373372 0.080013849 0.31877956
0.093287192 0.079864547 0.31818512
0.10289287 0.040524513 0.16145186
0.10415801 0.040081818 0.15968803
0.10380904 0.035732292 0.1423593
-0.10464025 0.05296069 0.20937641
-0.07367631 0.040028118 0.15824845
-0.073183767 0.039943896 0.15791558
0.033229709 0.083366074 0.3295821
0.037287846 0.082991026 0.32809937
0.041742373 0.082097657 0.32456726
0.055875897 0.081464104 0.32206303
0.057226252 0.081426568 0.32191455
0.070100114 0.080409154 0.31789207
0.071370803 0.080309883 0.31749997
0.076502413 0.079999067 0.31627086
0.078552313 0.080021478 0.31635967
0.082864739 0.080268808 0.31733733
0.086344242 0.080350883 0.31766203
0.093483537 0.080652535 0.31885475
0.10335317 0.035956379 0.14215076
-0.10808007 0.052861482 0.20739001
-0.10603081 0.053167503 0.20859051
-0.10594384 0.053802513 0.21108197
-0.10497374 0.053537909 0.21004382
-0.098618977 0.050950631 0.19989312
-0.072481945 0.040049624 0.15712579
0.037792288 0.083195619 0.32639965
0.042332426 0.082526475 0.32377413
0.047119267 0.082426228 0.32338119
0.04972269 0.082159817 0.32233581
0.075172409 0.080637686 0.31636357
0.10188387 0.040612549 0.1593342
0.10395753 0.036231529 0.14214645
0.1046764 0.035750747 0.14025995
-0.10758384 0.052803621 0.20559452
-0.079497352 0.041929744 0.16325665
-0.076995373 0.04152146 0.1616668
-0.071013063 0.039907124 0.15538138
0.030928852 0.084137268 0.32759488
0.041154403 0.082185484 0.31999558
0.041290797 0.081109866 0.3158077
0.047380261 0.082307868 0.32047153
0.058370572 0.082351439 0.32064134
0.076344773 0.081061646 0.31561956
0.081188418 0.081183128 0.31609243
0.084354162 0.08097937 0.31529903
0.086797759 0.081374884 0.31683892
0.10383799 0.040887143 0.15919726
0.10524419 0.036427449 0.14183316
-0.10568482 0.054489899 0.21056609
-0.074969426 0.041479625 0.16029021
0.031554285 0.084573999 0.32682118
0.055807006 0.082226977 0.31775138
0.13703771 0.078569695 0.30361816
0.10460682 0.041366193 0.15985231
0.1045333 0.040936057 0.15819004
0.10504508 0.036633778 0.14156467
-0.10904909 0.053033259 0.20340943
-0.10590888 0.055015501 0.21101232
-0.10396916 0.054471862 0.20892712
0.038900413 0.082998447 0.31834108
0.05058758 0.083196312 0.31909978
0.051925238 0.083153993 0.31893745
0.066117749 0.081326045 0.31192622
0.06771937 0.081649341 0.31316668
0.076985672 0.08225292 0.31548136
0.078144491 0.079322435 0.30424145
0.13997938 0.082420401 0.31612378
0.10253537 0.036877152 0.141442
0.10262856 0.036802016 0.14115423
0.10414596 0.03680528 0.14116643
0.1047556 0.036701627 0.14076918
-0.1045991 0.054974567 0.20929399
-0.099894926 0.053415943 0.2033603
-0.071465015 0.041073214 0.15637042
0.033800315 0.08447507 0.32160598
0.040764835 0.081895351 0.31178468
0.053376295 0.083912075 0.31946248
0.054201119 0.084132418 0.32030141
0.05706415 0.083314948 0.31718943
0.068484947 0.082374126 0.31360734
0.078836828 0.082686253 0.31479564
0.079867229 0.081001639 0.30838242
0.13994955 0.083017386 0.31605637
0.10099906 0.041488227 0.15795027
0.10225125 0.041723762 0.15884677
-0.10306341 0.055039156 0.20800053
-0.074667737 0.04039776 0.15266846
-0.076409832 0.042837888 0.16189019
0.054263592 0.082762286 0.31276983
0.13759121 0.080665156 0.30484447
0.10516157 0.042384438 0.16017671
0.10471185 0.042066276 0.15897427
0.1048014 0.041830812 0.15808444
0.1021926 0.037083343 0.14014271
0.10302296 0.036738466 0.13883968
-0.10963067 0.053864744 0.20207739
-0.10858634 0.054864675 0.20582874
-0.074288838 0.04253263 0.15956426
-0.072294384 0.042165071 0.15818503
0.052687485 0.085144624 0.31942615
0.05639128 0.081612155 0.30617374
0.056366894 0.080641158 0.30253115
0.10385404 0.042580914 0.15974547
0.10269912 0.036892138 0.1384033
-0.10975549 0.054534301 0.20310777
-0.10915794 0.054888818 0.20442788
-0.10789257 0.05581639 0.20788258
-0.075849093 0.041458812 0.15440913
-0.07353013 0.042600967 0.15866305
-0.072775796 0.042359188 0.15776281
0.10300836 0.042823873 0.15949336
-0.076363139 0.043755468 0.16179153
-0.072460547 0.043080013 0.15929368
0.054793734 0.079534039 0.29408744
0.13566326 0.082459524 0.30490443
0.13520062 0.081010796 0.29954794
0.10320709 0.043217104 0.15980083
0.10508867 0.043430161 0.16058853
0.1004217 0.035978444 0.13303503
0.10117485 0.03604421 0.133278
0.10190555 0.03580042 0.13237679
-0.11109148 0.055997599 0.2055801
-0.11026014 0.05579932 0.20485191
-0.10557479 0.057540961 0.21124625
-0.075863555 0.043980807 0.16146393
-0.074296258 0.043668192 0.16031602
0.13624816 0.081837907 0.30044624
0.13855536 0.08168368 0.29988015
0.10254442 0.043536514 0.15983275
0.10047641 0.036052745 0.13235791
0.10130943 0.036047127 0.13233738
-0.10882146 0.056133024 0.20461659
-0.10833555 0.056335188 0.20535365
-0.076586604 0.043146756 0.15727912
-0.076957844 0.044528674 0.16231631
0.059017722 0.083084755 0.30286139
0.10297759 0.044032559 0.16050807
0.10117377 0.03625581 0.13216019
0.1028396 0.036345448 0.13248667
-0.11074112 0.056617901 0.20493184
-0.074176311 0.042085007 0.15232934
0.13910528 0.083178692 0.30107036
0.10309033 0.044393182 0.16068372
0.10395165 0.044175476 0.15989546
0.10436432 0.044205517 0.16000438
0.099119313 0.036277734 0.13130949
-0.10553479 0.058500793 0.21026722
-0.078381181 0.04458813 0.16026121
-0.077201635 0.045302853 0.16283038
-0.076820545 0.045283359 0.16276045
0.10366602 0.044657648 0.16051139
0.098929666 0.036463249 0.13105835
0.098483063 0.036196146 0.1300983
0.10188454 0.036720499 0.131983
0.10272147 0.036717169 0.13197106
-0.10904773 0.057215724 0.20422141
-0.10830794 0.057518277 0.2053012
-0.10540967 0.058839701 0.21001773
-0.10291071 0.058440227 0.20859218
-0.073154107 0.044636279 0.15932116
0.1032795 0.045100618 0.16097844
0.10590945 0.045048516 0.1607925
0.098728925 0.036539979 0.13042299
0.10175058 0.03692849 0.13180956
0.1027882 0.036896437 0.13169523
-0.10787169 0.058155365 0.20614456
-0.10687502 0.058332901 0.20677365
-0.10646258 0.059839908 0.21211569
-0.10097797 0.057991914 0.20556511
-0.076386452 0.046074118 0.16331992
-0.074412748 0.045507584 0.16131158
-0.072810173 0.045155149 0.16006224
0.10403131 0.045441471 0.16107737
0.099030897 0.037010703 0.13119239
0.10158476 0.037124135 0.13159491
-0.10880478 0.05834768 0.20541082
-0.10838751 0.058596879 0.20628774
-0.10487613 0.059864331 0.21074979
0.10112243 0.037417114 0.13172534
-0.10878913 0.058036175 0.20292491
-0.10798457 0.059260748 0.20720658
-0.076627746 0.046856761 0.16383566
-0.07575158 0.04653367 0.16270606
0.10431541 0.046656817 0.16313675
0.10444218 0.04624971 0.16171314
0.10613576 0.046234656 0.16166055
-0.10766321 0.059731055 0.20744079
-0.089212529 0.052522853 0.18240733
0.10437502 0.046380833 0.1610764
0.10522597 0.046300773 0.16079848
0.10682131 0.046546575 0.16165222
0.10188147 0.041072935 0.14264265
-0.10864965 0.059461042 0.20511776
-0.1043812 0.06080522 0.20975521
-0.07630001 0.047507863 0.16388409
-0.074803509 0.046790853 0.16141079
-0.073145539 0.046179641 0.15930256
0.10151247 0.040833864 0.14086132
0.1008591 0.040331852 0.13912953
0.10285484 0.038201492 0.13178056
-0.10764726 0.060034305 0.20571581
-0.1060468 0.061923925 0.2121909
-0.074530758 0.046932936 0.1608222
0.10013635 0.040671173 0.13936527
-0.10615242 0.062666535 0.21331453
-0.099523135 0.059780177 0.2034888
-0.074881665 0.047034226 0.16010262
-0.074399039 0.046945564 0.15980098
0.10484007 0.047374867 0.16126205
0.10095709 0.042155497 0.14349543
0.10221931 0.041669719 0.14184217
0.10007349 0.040316727 0.13723651
0.10182817 0.038645018 0.13154578
-0.10765256 0.061086822 0.20656969
-0.07476005 0.047485594 0.16057633
-0.071498424 0.046921838 0.15866971
-0.10873422 0.061600905 0.20694765
-0.099487476 0.060815487 0.20430884
0.10271697 0.042176723 0.14169231
-0.10606123 0.063855939 0.21313137
-0.069691256 0.046558022 0.15539622
0.10296857 0.048246104 0.16103034
0.10359553 0.048378129 0.16147116
0.10059305 0.042967971 0.14341356
0.099627756 0.040459782 0.13504212
-0.10463928 0.063682213 0.21118076
-0.0763271 0.04943724 0.16394222
0.10236929 0.043480597 0.14418878
0.10046919 0.041305628 0.13697635
-0.10668347 0.063165218 0.20812429
-0.10272197 0.063743271 0.21002911
-0.08637137 0.054069612 0.17815536
-0.078194141 0.049386039 0.16272312
-0.077003002 0.049070302 0.16168275
-0.076508589 0.049420588 0.16283704
-0.07555899 0.049030274 0.16155066
-0.07205122 0.048072107 0.15839386
0.10445029 0.049083348 0.16172576
0.10480835 0.048927873 0.16121349
0.10636553 0.04916979 0.16201049
-0.1082669 0.063455075 0.20774855
-0.10213671 0.064066216 0.20974939
-0.076339416 0.049627125 0.1624767
-0.076044597 0.049889371 0.16333531
-0.073346943 0.048791617 0.15974116
-0.071696423 0.048598539 0.15910901
0.10592733 0.049441889 0.16187008
0.10061612 0.043814577 0.14344686
-0.10589212 0.065409079 0.21279143
-0.077568777 0.049840529 0.16214301
-0.077722378 0.050163269 0.16319323
0.10509616 0.049690813 0.16165598
0.10348964 0.043881875 0.14275822
0.10421146 0.04392891 0.14291127
0.099936083 0.04139873 0.13467969
-0.10811395 0.063650027 0.20576714
-0.072769307 0.049484275 0.15997232
-0.071856305 0.049327001 0.15946379
0.10459206 0.049765322 0.16088076
0.1015501 0.044512995 0.14390129
0.097925536 0.040128924 0.12972824
-0.073852837 0.050300498 0.16159506
0.10591409 0.050379727 0.16184981
0.10617192 0.050337963 0.16171564
0.10671598 0.050268654 0.16149294
0.10381971 0.044447713 0.14279249
0.10464019 0.044537071 0.14307971
0.099317186 0.041305903 0.13269897
0.097915038 0.040262613 0.12934779
-0.10907906 0.064762004 0.20676284
-0.10512169 0.067322016 0.21493573
-0.079055525 0.05130133 0.16378738
0.10630878 0.050553169 0.16139886
0.10015266 0.044859949 0.14322236
0.10257055 0.045251444 0.14447197
0.10325411 0.045280308 0.14456439
0.10523306 0.044937931 0.14347129
0.10082895 0.045167152 0.14331338
0.10324641 0.045558024 0.14455371
0.10572367 0.045427594 0.14414008
0.096613504 0.039886035 0.12655674
-0.10815059 0.066078916 0.20837988
-0.10597783 0.065835819 0.20761339
-0.10460771 0.068122208 0.21482362
-0.072799869 0.050749782 0.16003948
0.10600338 0.051535409 0.16251722
0.10634928 0.051534716 0.162515
0.1020119 0.045701217 0.14411885
0.096455246 0.039843298 0.12564583
-0.10621684 0.066388756 0.20808156
-0.10578015 0.068407349 0.21440819
-0.073112443 0.051522296 0.16148545
0.10522181 0.051980045 0.16292045
0.10367736 0.045764904 0.14344034
-0.10601891 0.068979569 0.21489216
-0.073369801 0.052018691 0.16205391
0.10545354 0.052239168 0.16274062
-0.10751946 0.066901661 0.20716384
-0.10632635 0.066986851 0.20742774
0.10689715 0.052581336 0.1628204
0.10110533 0.0466922 0.14458451
-0.10767972 0.067683466 0.20833048
-0.10633575 0.06739597 0.20744607
-0.1058898 0.067677781 0.208313
-0.076641068 0.053481504 0.16461657
-0.0716241 0.05164003 0.1589486
0.10397787 0.052829221 0.16260894
0.10737213 0.053132884 0.16354387
0.10207763 0.04685225 0.14421195
0.097104058 0.041209746 0.12684424
0.10273151 0.047291756 0.14469869
0.10307849 0.047309168 0.14475185
0.10363012 0.047278505 0.14465804
0.1039023 0.046982195 0.14375156
-0.10871854 0.067753471 0.20607962
-0.073563568 0.053419828 0.16248211
-0.10742927 0.069023766 0.208709
-0.074214324 0.053956319 0.1631491
-0.07142818 0.053180061 0.16080195
0.10728608 0.053868141 0.16288242
0.10086154 0.047701497 0.14423609
0.10373423 0.048032355 0.14523666
0.097569861 0.04191684 0.12674476
-0.075334623 0.054327 0.16330992
-0.072941914 0.053594865 0.16110887
0.096836947 0.042080153 0.12649514
0.097127527 0.041740343 0.1254735
-0.10766758 0.069700882 0.20830718
0.10480691 0.054479633 0.16281706
0.10642686 0.054065034 0.16157785
-0.10753369 0.07030946 0.20891187
-0.073138393 0.054367378 0.16154274
0.10499032 0.054710381 0.16256204
-0.10832459 0.070649058 0.20871511
-0.1075392 0.070719264 0.20892268
0.10508731 0.054895617 0.16217561
0.10311119 0.049160842 0.14523345
0.10424638 0.049404562 0.1459536
0.1039365 0.049110819 0.14508569
-0.10717174 0.071177989 0.20907697
-0.099423304 0.069816329 0.20507698
-0.075358145 0.055873416 0.16412136
0.10492516 0.055491842 0.16300064
0.10521542 0.05527816 0.1623732
-0.075685017 0.056436203 0.16483302
-0.074310556 0.056196157 0.16413204
-0.069978371 0.05393856 0.15753818
0.10510809 0.055721134 0.16274436
0.10445751 0.050073355 0.14624928
0.10451508 0.049951531 0.14589338
-0.099471591 0.070337974 0.20427608
-0.10240977 0.073056996 0.21217258
-0.075903416 0.056395546 0.16378404
0.10516635 0.056068573 0.16283482
0.10551745 0.056070168 0.16283941
0.10039794 0.049285512 0.1431355
-0.077712938 0.056502387 0.16317339
-0.074080013 0.056391869 0.16285384
0.10594945 0.056431625 0.16296859
0.10661227 0.056413725 0.16291711
-0.10455942 0.074770607 0.21472454
-0.076848224 0.056954309 0.16355968
-0.074142657 0.056756448 0.16299161
0.10761187 0.057075858 0.16390893
0.10110635 0.050347257 0.14458603
0.1034032 0.050563715 0.14520779
-0.078406364 0.05764683 0.16462947
-0.078877956 0.058254853 0.16636598
0.10519466 0.057413723 0.16396374
0.10700829 0.057259012 0.16352195
0.10444532 0.051204827 0.14623207
0.10493921 0.050989274 0.14561628
-0.10631411 0.07395307 0.21003105
-0.076942198 0.057660706 0.1637599
-0.074113518 0.057638507 0.16369663
0.10572968 0.057451881 0.16316687
0.10638429 0.057428848 0.16310124
0.10774139 0.05778281 0.16410637
-0.10651721 0.073879533 0.20866987
0.10437795 0.058182146 0.16433309
0.10563388 0.058100142 0.16410151
0.10252658 0.051438142 0.14528507
-0.10716186 0.074423172 0.20905755
-0.10566321 0.074627139 0.20963033
-0.10475305 0.076582178 0.21512221
-0.076401092 0.058960415 0.16562185
0.10576308 0.058490597 0.16430229
0.10350987 0.051902276 0.14579527
0.10404983 0.051705938 0.145244
0.10642614 0.058788363 0.16424166
0.10358834 0.052225295 0.14590572
-0.1058216 0.075555399 0.20994447
-0.10360209 0.076905616 0.21369666
-0.075735904 0.058275525 0.16192918
0.10390402 0.05251085 0.14591099
-0.10621122 0.075921439 0.20982791
-0.10334168 0.077468336 0.21410348
-0.10783929 0.075584471 0.20778018
-0.10609967 0.076898612 0.21139251
-0.072631001 0.059195396 0.16272675
0.10616973 0.059799809 0.16438831
0.10416434 0.05305206 0.14583884
-0.10777289 0.076255694 0.20851086
-0.10696635 0.076957926 0.21043122
-0.10596389 0.077210665 0.21112193
-0.10403067 0.07882306 0.21553071
-0.077033877 0.059960973 0.16395499
-0.075623684 0.060799256 0.16624734
-0.074139506 0.059887432 0.16375394
-0.071549766 0.059192691 0.16185425
0.10605641 0.060055118 0.16421266
0.10833336 0.060543112 0.16554691
0.10908237 0.060763247 0.16614898
0.10355199 0.053664383 0.14673783
-0.10776985 0.077298224 0.21024363
-0.10653216 0.077378422 0.21046202
-0.10589177 0.077239461 0.21008378
-0.1024753 0.07875479 0.21420532
0.10364811 0.05399989 0.14687437
0.10417244 0.053784266 0.14628786
-0.10807427 0.077602997 0.20996223
-0.10460389 0.080100082 0.21671844
-0.1035468 0.079643235 0.21548241
-0.072352245 0.059913658 0.16210207
-0.071854465 0.0600769 0.16254358
-0.074991003 0.061541449 0.16563489
-0.07109718 0.060339909 0.16240108
0.10711171 0.061214961 0.1647563
-0.075392798 0.062194843 0.16652222
-0.074179634 0.061484352 0.16461976
-0.071121879 0.060676735 0.16245756
0.10786239 0.061763525 0.16536723
-0.10771698 0.077919908 0.2075443
-0.087786905 0.069514744 0.18515646
0.10831281 0.062140729 0.16551556
0.10883581 0.062237371 0.16577323
0.10193995 0.054898392 0.14622514
0.10432722 0.055335745 0.14739011
0.1048908 0.054807231 0.14598231
0.10561407 0.055021465 0.14655301
-0.10524386 0.081923105 0.21708281
-0.10466956 0.081836797 0.21685442
-0.078227721 0.062547974 0.16574186
-0.071193926 0.061671671 0.16341995
0.10542011 0.062009536 0.16431491
0.1055887 0.06190249 0.16403158
-0.10265211 0.081447177 0.21362062
-0.077379338 0.063368008 0.16620225
-0.071930192 0.062339772 0.16350557
-0.10506851 0.080221422 0.20933811
-0.075201839 0.063056715 0.16454677
-0.075018719 0.063198797 0.16491753
-0.071132459 0.062570937 0.16327898
0.10177956 0.055947442 0.14599508
-0.10684644 0.080958627 0.21019506
-0.079267748 0.065276921 0.16948031
0.10455804 0.063617699 0.16517241
0.10614824 0.063937522 0.166003
0.10708252 0.063440025 0.16471119
0.10501716 0.05646215 0.14659408
-0.10709626 0.081216015 0.20980461
-0.079602562 0.065883547 0.17019628
-0.074663751 0.063838035 0.16491197
-0.074431024 0.063940927 0.16517769
0.10497191 0.063975818 0.16526815
0.10634084 0.063949391 0.16519976
0.10646029 0.063809454 0.16483817
0.1027303 0.056695394 0.14646074
-0.10671747 0.081677094 0.20994142
-0.10334969 0.082935594 0.21317606
-0.077641308 0.065480746 0.16831034
-0.073075294 0.064002253 0.16451001
0.10614772 0.064582728 0.16600217
0.10650305 0.064583011 0.16600285
0.10658459 0.064204767 0.16503061
0.10695041 0.064212672 0.16505086
0.10812781 0.064494066 0.1657742
0.10954451 0.064913794 0.16685286
0.10383914 0.0570735 0.14670065
-0.10617331 0.082359418 0.21064213
-0.10575652 0.082737729 0.2116098
-0.10464219 0.084766172 0.21679781
-0.074944794 0.064721905 0.16553262
0.10671512 0.064819165 0.16578141
0.10677283 0.06463962 0.16532199
0.10235016 0.057402972 0.14681359
0.10454104 0.057057265 0.14592946
-0.084115401 0.070667654 0.17984496
-0.071152508 0.06449268 0.16413009
-0.10731868 0.083019748 0.21024029
-0.10565388 0.086821333 0.21986732
-0.10520699 0.086840406 0.21991561
-0.073067874 0.064955145 0.16449308
-0.072533041 0.064791553 0.16407862
-0.071662083 0.064638577 0.16369122
0.10582866 0.065793917 0.16661726
0.10707814 0.065469161 0.16579473
0.10906928 0.065815419 0.16667151
0.11029868 0.066340469 0.16800134
0.10315967 0.058612075 0.1484298
-0.10690832 0.083811335 0.21120492
-0.10201862 0.085772902 0.21614788
-0.07464391 0.065734111 0.16565014
-0.072161041 0.065091334 0.16403019
0.10827581 0.065873422 0.16600105
0.1048365 0.058072113 0.14634183
-0.10708503 0.084361292 0.21155402
-0.074649595 0.066061221 0.16566278
0.10218189 0.058269836 0.14612398
-0.10379329 0.087329097 0.21793421
-0.075241663 0.065664038 0.16386758
-0.075075991 0.06644731 0.16582263
-0.074256748 0.066348657 0.16557619
-0.072708987 0.06590797 0.16447656
0.10296628 0.059184365 0.14769745
0.10357219 0.05899011 0.14721251
-0.10615915 0.084805578 0.21061437
-0.10521816 0.0881662 0.2189607
-0.10452682 0.088373087 0.21947438
-0.075950556 0.066295646 0.16464515
-0.073673703 0.066463955 0.16506308
0.10594306 0.066713229 0.1656822
0.10299301 0.059669934 0.14819004
0.10157229 0.058487125 0.1452526
-0.10582992 0.085312448 0.21085525
-0.07688427 0.067123733 0.1659006
-0.072972164 0.066788644 0.1650721
-0.072344162 0.066860236 0.16524942
-0.071940012 0.066812925 0.16513246
0.10641869 0.067336373 0.16642593
0.10729497 0.067216702 0.16613051
0.10561815 0.059651896 0.14743327
-0.10522371 0.084156282 0.20700288
-0.078805491 0.068188258 0.16772549
-0.077503733 0.067677498 0.16646935
0.10512597 0.060017236 0.14762683
-0.10610715 0.086357959 0.2114075
-0.10408197 0.089271724 0.21854028
-0.071208499 0.067430794 0.16507307
0.10661942 0.067884937 0.16618448
0.10932228 0.068241812 0.16705808
0.10292912 0.059943765 0.14674421
0.10650132 0.060728699 0.14866582
-0.10327758 0.085918806 0.20933561
-0.080415629 0.071219057 0.17352055
-0.074611194 0.067958891 0.16557758
0.10833351 0.068393193 0.16663572
0.10198174 0.060225159 0.14673477
-0.10645765 0.087842077 0.21301287
0.10516325 0.068277471 0.16556953
0.10376432 0.060819998 0.14748544
0.10446552 0.060861208 0.14758535
-0.10600812 0.088261113 0.21302453
-0.10536912 0.091256671 0.22025445
-0.10137252 0.089392789 0.21575576
-0.076309025 0.069179378 0.16696928
-0.074684635 0.068670221 0.16574034
0.1082269 0.068973117 0.1664717
0.10389155 0.061181732 0.14766651
0.10426993 0.061218638 0.14775531
0.10546844 0.060817085 0.14678639
-0.10202088 0.089977495 0.21615261
0.1049046 0.068751805 0.1651623
0.10094342 0.060645722 0.145689
0.10464481 0.061540619 0.14783898
0.10505927 0.061598409 0.14797746
-0.10650171 0.088742033 0.21219367
0.10708537 0.069342136 0.16580597
0.10352938 0.061916851 0.14805099
0.10531104 0.061848167 0.14788686
-0.10670727 0.088199921 0.20992115
-0.072427727 0.069851913 0.16625193
0.10180576 0.061545264 0.14648156
-0.10489146 0.089741617 0.21260688
-0.099265262 0.089585379 0.21223669
-0.076225951 0.070401311 0.16678779
-0.075078003 0.070327707 0.16661352
-0.073349677 0.070377864 0.16673215
0.10713073 0.070249029 0.1664269
-0.10181771 0.092312172 0.21769388
-0.07672137 0.070853859 0.16709013
-0.073853396 0.070502535 0.16626164
-0.073212937 0.070570245 0.16642149
0.10557388 0.062679164 0.14781234
-0.102902 0.089627147 0.21039736
-0.077605888 0.071335196 0.16745755
-0.074799798 0.071049638 0.16678724
0.10753971 0.070931353 0.16650958
0.10956419 0.071322568 0.16742772
-0.10598179 0.090748072 0.21206075
-0.072728544 0.071091615 0.16612746
0.10702926 0.071152247 0.16626927
0.10373443 0.063288227 0.14789227
-0.11789511 0.098460093 0.22904174
-0.1129965 0.09596286 0.22323267
-0.10718867 0.09180586 0.21356234
-0.076795913 0.071898259 0.16725262
0.10866353 0.071851224 0.16714314
0.10965379 0.072268598 0.16811372
0.10246862 0.063185059 0.14698356
0.10475192 0.063617833 0.14799009
-0.12264657 0.10079865 0.23342609
-0.11952426 0.099446215 0.23029414
-0.11791894 0.098925471 0.22908808
-0.11434051 0.097543478 0.22588758
-0.077605195 0.072311401 0.16745616
-0.073650815 0.071944743 0.16660714
-0.071363136 0.071792811 0.16625525
0.10503393 0.072136916 0.1670524
0.10577177 0.071910404 0.16652749
0.10793403 0.071928233 0.16656885
0.10253795 0.063513771 0.14708278
-0.12150057 0.099496998 0.22937892
-0.11550303 0.098149978 0.22627333
-0.1116399 0.096895918 0.22338225
-0.10380342 0.094967999 0.21893795
-0.10358128 0.09519396 0.21945855
-0.073382735 0.072355524 0.16680735
