# .PCD v0.7 - Point Cloud Data file format
VERSION 0.7
FIELDS x y z
SIZE 4 4 4
TYPE F F F
COUNT 1 1 1
WIDTH 1385
HEIGHT 1
VIEWPOINT 0 0 0 1 0 0 0
POINTS 1385
DATA ascii
0.18197167 0.0015256405 0.37477702
0.44901949 0.0029270649 0.7190364
0.46123248 0.0028141141 0.69127399
0.46400994 0.0028220415 0.69321603
0.46645433 0.0027923584 0.68591672
0.11765838 0.00068497658 0.16825616
-0.2230899 0.0032225251 0.53574032
-0.19682696 0.0031504631 0.5237481
-0.1917727 0.0031228065 0.51915675
-0.18520463 0.0030872822 0.51325518
-0.18494636 0.0031387806 0.52181178
-0.16508216 0.0030007362 0.4988578
-0.17364293 0.00319767 0.53159457
-0.16580385 0.0032900572 0.54696411
-0.15466136 0.0031811595 0.52885062
-0.15611163 0.0033582449 0.55829126
-0.17008483 0.0037446022 0.62253791
-0.14962786 0.0038342476 0.63742024
0.052284896 0.0034891963 0.58005935
0.056358337 0.0032925606 0.54737395
0.056995869 0.003262043 0.54230863
0.062970042 0.0032120347 0.53399402
0.065332115 0.0031607151 0.52545327
0.073211253 0.0029786825 0.49518734
0.069414735 0.0020104051 0.33422059
0.080494046 0.0021137595 0.35140294
0.1270023 0.0021905303 0.36415774
0.2716518 0.0030805469 0.51213425
0.44449294 0.0043259859 0.71917218
-0.23983303 0.0043392777 0.54516786
-0.23730022 0.0043355823 0.5447033
-0.2122871 0.0042542219 0.53448826
-0.20935979 0.0042412877 0.53285319
-0.18977356 0.0040891171 0.51374489
-0.16779423 0.0045009851 0.5654915
-0.16688895 0.0051436424 0.64622885
-0.15383571 0.004946053 0.62139863
-0.15065199 0.0048858523 0.61383754
-0.15566158 0.0051836967 0.65126449
-0.15210938 0.0051110983 0.64214486
-0.13110745 0.0045704842 0.5742076
0.053534389 0.0045132637 0.56703025
0.0570243 0.0043185949 0.54257947
0.057727098 0.0042848587 0.53831869
0.075997412 0.0040331483 0.50670701
0.12040001 0.002889514 0.36302489
0.12452048 0.0028771162 0.36147231
0.13222569 0.0028599501 0.35931635
0.18567997 0.0030041933 0.37743014
0.26708287 0.0039598942 0.49750668
-0.23413855 0.0053755045 0.54277188
-0.18716192 0.0050472021 0.50962347
-0.15490627 0.0055716634 0.56258088
-0.148471 0.0059913397 0.60495108
-0.14186576 0.0058262348 0.58828408
-0.13465902 0.0061277151 0.61872119
-0.11382988 0.0059379935 0.59956104
0.059608936 0.0052942038 0.53455859
0.073683083 0.0050828457 0.51321775
0.074434936 0.0050593615 0.51084965
0.070971191 0.0033842921 0.34171474
0.10587269 0.0036838651 0.3719582
0.10856932 0.003721714 0.37578875
0.1192525 0.0036076307 0.3642602
0.13281411 0.0035744905 0.36091524
0.13468778 0.003562808 0.35973865
0.13743627 0.0035151243 0.35492295
0.13891816 0.0035142303 0.35483259
0.16708261 0.0034691691 0.35027999
0.17402643 0.0035971403 0.36320996
0.19229072 0.0038710833 0.39086777
0.47154313 0.0073279738 0.73990983
-0.24020338 0.0065008402 0.5486756
-0.2071901 0.0059562922 0.50271815
-0.20436102 0.0062648058 0.52875954
-0.18376857 0.0059633255 0.50331289
-0.18198976 0.0059403777 0.50137597
-0.17870152 0.006197989 0.52312011
-0.16446668 0.0058884621 0.49699754
-0.17254674 0.0062586665 0.52823824
-0.17018083 0.0063387156 0.53499776
-0.17249644 0.0065125227 0.54966396
-0.17265338 0.0065631866 0.55393702
-0.16860697 0.0064535141 0.54468971
-0.16481182 0.006441772 0.54369146
-0.16440946 0.0064716339 0.54621547
-0.12635773 0.0075457096 0.63686854
-0.11331218 0.0070713758 0.59683412
0.052048147 0.006531775 0.55128843
0.061397374 0.0064008832 0.54024142
0.073490143 0.0060647726 0.51187354
0.073382795 0.0040609837 0.34274459
0.13698065 0.0065363646 0.55167204
0.14712805 0.0067308545 0.56808919
0.15159225 0.0067133904 0.5666216
0.10997897 0.0044770837 0.37787235
0.12744707 0.0042772889 0.36100835
0.12962848 0.0042984486 0.3627944
0.14356834 0.0041630864 0.35136473
0.19172388 0.0045776367 0.38635832
0.46506947 0.008734107 0.73716873
-0.082081497 0.0024428964 0.17711514
-0.084588408 0.0026265383 0.19042879
-0.20076829 0.0073268414 0.53121465
-0.18247586 0.0071876645 0.52112669
-0.18220401 0.0072209835 0.52354604
-0.16348282 0.0068138242 0.49402493
-0.1657123 0.0075398088 0.54666191
-0.16135103 0.0074464083 0.5398882
-0.16027743 0.0078457594 0.56884116
-0.14086598 0.0083528757 0.60560876
-0.13875499 0.0083817244 0.60770136
-0.12922919 0.00843817 0.61179692
-0.12935331 0.0087106824 0.63155586
-0.11666268 0.0083808899 0.60764104
0.050841272 0.0075992942 0.55097908
0.053578675 0.0074882507 0.54291731
0.074150801 0.0070189834 0.50889927
0.088192582 0.0070111752 0.50833315
0.087292254 0.0063887239 0.46319908
0.080843866 0.00505656 0.36661327
0.11961013 0.0068809986 0.49889213
0.13976568 0.0076322556 0.55336148
0.15264803 0.0079329014 0.57516271
0.1103583 0.0053880215 0.39065093
0.10987467 0.0053241253 0.3860184
0.11059213 0.0051650405 0.37447912
0.11259449 0.0051834583 0.3758195
0.11293262 0.0050901175 0.36904967
0.11788905 0.0050997734 0.36975127
0.12142617 0.0049539804 0.35917503
0.13624102 0.0049344301 0.35776025
0.13827038 0.0048447847 0.35126048
0.18315023 0.005179882 0.37555116
0.26574212 0.0068002939 0.4930461
0.3368507 0.0083229542 0.60344106
0.34869927 0.008359611 0.60610133
0.46502429 0.010132015 0.73460835
0.46949345 0.010195017 0.73917264
0.44435555 0.0092447996 0.67027384
0.45511836 0.0094079971 0.68211037
0.46710187 0.0094736814 0.68686885
-0.083572388 0.0027739406 0.1762675
-0.23617804 0.0086587667 0.55022579
-0.21372789 0.0084682703 0.53811604
-0.21122384 0.0084601045 0.53759724
-0.20143044 0.008387208 0.53296655
-0.19625688 0.0082651973 0.52521807
-0.18541554 0.008282423 0.52630931
-0.18336841 0.0082409978 0.5236755
-0.16635257 0.0082297921 0.52296311
-0.17146701 0.0085402131 0.54268771
-0.16619778 0.0086278915 0.54826349
-0.1633454 0.0087259412 0.55449253
-0.16453618 0.0088538527 0.56261665
-0.14474446 0.0094455481 0.60022134
-0.14018399 0.0094842315 0.60267657
-0.13833779 0.0095344782 0.605874
-0.11697811 0.0095882416 0.6092841
-0.11527133 0.0097746849 0.62113839
-0.098342538 0.0095490217 0.60679072
0.065830529 0.008628726 0.54831332
0.065682113 0.0083132982 0.52826864
0.069911599 0.0080212355 0.50971252
0.074238002 0.0080178976 0.5094977
0.10118085 0.0081710815 0.51922971
0.10839838 0.0084750652 0.53854734
0.10797364 0.0083531141 0.53080064
0.082021534 0.0062794089 0.39902657
0.10473365 0.0071952343 0.45722276
0.12798029 0.008181572 0.51989955
0.13731575 0.0085555315 0.54366189
0.13973802 0.0080902576 0.51409882
0.11102158 0.0061846375 0.39299881
0.11776859 0.0056981444 0.3620913
0.12509185 0.0057862997 0.36769348
0.12484056 0.005738616 0.36466366
0.14222223 0.0055648685 0.35361952
0.14353091 0.0055279732 0.35127306
0.14258516 0.0054628849 0.3471427
0.14516991 0.0054209232 0.34447294
0.17558384 0.0057669282 0.36646044
0.18008727 0.0058625937 0.37253582
0.18172413 0.0058640242 0.37262684
0.45078355 0.011398792 0.72434026
0.46383661 0.011569977 0.73521441
0.48149914 0.011038244 0.70142633
-0.20903379 0.0093054771 0.52629727
-0.20573118 0.0095705986 0.54128486
-0.17586476 0.0093361735 0.52803093
-0.16704279 0.0096077919 0.54338866
-0.16795251 0.0097276568 0.55017298
-0.17007202 0.0099198818 0.56104416
-0.1567083 0.0099852681 0.56474191
-0.15770233 0.01012665 0.57273549
-0.15493947 0.011162281 0.63130707
-0.1429556 0.010670662 0.60350126
-0.14150566 0.010658562 0.6028195
-0.1283893 0.010328948 0.58417672
-0.12091881 0.01101321 0.62287527
0.054649174 0.0091938376 0.51997989
0.080060363 0.0089291334 0.50500935
0.083084583 0.0079760551 0.45110416
0.1018402 0.0081656575 0.46182793
0.10572022 0.0083953738 0.47482115
0.13653982 0.0094780922 0.53605372
0.14776284 0.010087848 0.57054001
0.11957949 0.0075414181 0.42651939
0.11870557 0.0064530969 0.36497211
0.12043422 0.0063794255 0.36080295
0.12776381 0.0063989162 0.36190534
0.13116974 0.006339252 0.35852915
0.16829914 0.0062665343 0.35441864
0.18062186 0.0065773726 0.37199706
0.45386064 0.012850523 0.72678882
0.45050997 0.011862278 0.67090517
0.47028357 0.012189031 0.68938094
-0.24477392 0.010814548 0.55104464
-0.24361512 0.010815382 0.55108744
-0.20524114 0.010364532 0.52811652
-0.17879695 0.010468423 0.53341132
-0.16831651 0.01089716 0.55525309
-0.16571724 0.011040211 0.56254405
-0.13245046 0.012560248 0.63999885
-0.12373036 0.012508452 0.63735777
-0.11474779 0.012420774 0.63289541
0.055161178 0.010300457 0.52485162
0.061085999 0.010548711 0.53750151
0.065119863 0.010458589 0.53290707
0.07287848 0.0099621415 0.50761312
0.074805856 0.0099298954 0.50597292
0.081863225 0.009999454 0.50951308
0.083369315 0.0097925663 0.49897331
0.085909545 0.0095998049 0.48914772
0.086306155 0.0095281601 0.48549813
0.087483823 0.0094313025 0.48056644
0.10934025 0.010661066 0.54322678
0.098399162 0.0085908175 0.43773812
0.11592019 0.0095742345 0.48785061
0.12403452 0.0099752545 0.50828391
0.11949134 0.0072578788 0.36981863
0.1221962 0.0071388483 0.36375278
0.13293582 0.0070486665 0.35916013
0.27949429 0.010299563 0.52480465
0.34099084 0.011852205 0.60392076
0.46631473 0.014030695 0.71492189
0.44546503 0.013316095 0.67850989
0.47045821 0.013619781 0.69398552
0.4696632 0.013554096 0.69063538
0.46780986 0.013250709 0.67517787
-0.083625197 0.0037873983 0.17558736
-0.083070815 0.0037792921 0.17520952
-0.17752051 0.011957169 0.55434686
-0.17640689 0.01204288 0.55832225
-0.1705426 0.012050152 0.55865759
-0.16130161 0.011725605 0.54361063
-0.16446242 0.012310028 0.57070667
-0.13931555 0.012919068 0.59894305
-0.13070083 0.013212919 0.61256582
0.062331378 0.011401296 0.5285781
0.064358532 0.011360347 0.52667695
0.072073877 0.010828257 0.5020085
0.074170113 0.010820985 0.5016728
0.079627931 0.010834098 0.50228196
0.083951473 0.010567546 0.48992354
0.088018894 0.010074317 0.46705478
0.090399802 0.010117292 0.46904939
0.10893679 0.011674047 0.54122216
0.082560956 0.0084015131 0.38950092
0.12242806 0.010917187 0.50613362
0.14454371 0.011206031 0.51952344
0.11098659 0.008410573 0.38992482
0.1253925 0.0079501271 0.36857718
0.17916709 0.0079593062 0.36900085
0.3408522 0.013272345 0.61532158
0.44339508 0.015262961 0.70760769
0.47443181 0.015792549 0.73216504
-0.082600564 0.0040965676 0.17421776
-0.22777295 0.012995243 0.55265969
-0.22276896 0.012910664 0.5490604
-0.18465996 0.0122509 0.52100366
-0.17621714 0.012521386 0.53250605
-0.171417 0.013584137 0.57770091
-0.16570431 0.013421535 0.57078272
-0.1568234 0.013497114 0.57399923
-0.15623513 0.014225423 0.60497493
-0.13138229 0.014056563 0.59779459
-0.12287498 0.015218496 0.64720315
0.076453626 0.011817813 0.50258654
0.088818073 0.011339307 0.48223394
0.10636151 0.012425482 0.52842766
0.081305921 0.0084248781 0.35829043
0.13279641 0.012685061 0.53946441
0.14431113 0.012484252 0.53092307
0.10925841 0.0088924766 0.37817383
0.11290133 0.0086755157 0.36894715
0.119829 0.0087205172 0.3708635
0.12352127 0.0085914135 0.36537236
0.1476934 0.0083681345 0.35587573
0.33354169 0.014104009 0.59980994
0.34483659 0.014199495 0.60387427
0.35169905 0.014010251 0.59582096
0.442792 0.016559601 0.70424312
0.47401828 0.017201185 0.73152667
0.46907228 0.016854882 0.71680099
0.11187452 0.0035148859 0.14947689
0.11063409 0.0034269691 0.14573854
-0.080138922 0.0043821931 0.17212957
-0.24066034 0.013995051 0.54971927
-0.21502906 0.013782978 0.54139215
-0.17961133 0.013817906 0.54276282
-0.17474788 0.014080405 0.55307144
-0.16453642 0.014016032 0.55054647
-0.15778601 0.014476299 0.56862551
-0.13132578 0.015828133 0.62172264
-0.12302953 0.016497612 0.64801711
0.061806321 0.013343453 0.5241254
0.066152692 0.013095081 0.51436907
0.065417051 0.01253283 0.4922865
0.068948984 0.012411118 0.48750132
0.089506924 0.012666106 0.4975211
0.092663646 0.011358559 0.44616067
0.12730438 0.012724042 0.49979562
0.14492244 0.013901711 0.54605371
0.14454764 0.013538599 0.5317933
0.11446482 0.0093916655 0.36890352
0.11664218 0.0093137622 0.36584061
0.12618637 0.0093256235 0.36630803
0.12563431 0.0092276335 0.36245656
0.12897402 0.0088202357 0.34645557
0.12956208 0.0088098049 0.34604847
0.14379084 0.0092493296 0.36331195
0.27603489 0.013090253 0.51418191
0.32358879 0.014757872 0.57968348
0.46415979 0.017998815 0.70698494
0.11135703 0.0037451386 0.14710498
-0.080407292 0.0046895742 0.17113477
-0.24307325 0.014923453 0.54459554
-0.220007 0.014552653 0.53106278
-0.21865475 0.014690578 0.53609616
-0.18075523 0.014777064 0.53925389
-0.17589551 0.01466018 0.53498966
-0.16648695 0.015714884 0.5734784
-0.12978214 0.017008781 0.62069541
-0.11907262 0.016445756 0.60014969
-0.11690915 0.017669737 0.6448167
0.078900754 0.013456821 0.49107438
0.089010417 0.01372087 0.50070959
0.074324965 0.0090605021 0.33064163
0.14907604 0.015148282 0.55280024
0.11068016 0.010123491 0.36942953
0.11198509 0.010098696 0.36852723
0.11598998 0.01003629 0.3662501
0.12068707 0.0099077821 0.3615607
0.12599283 0.0099606514 0.363491
0.12596709 0.009837389 0.3589893
0.13132334 0.0097226501 0.3548035
0.13125014 0.0096061826 0.35055709
0.13377994 0.0096808672 0.3532806
0.13723111 0.0097652674 0.35636014
0.1388399 0.0097712278 0.3565796
0.15097189 0.0098167658 0.35824043
0.14926308 0.0096082091 0.35062909
0.14970267 0.0095884204 0.34990489
0.16246706 0.00968045 0.35326719
0.16719037 0.009519577 0.3473928
0.33477539 0.016064882 0.58625525
0.3403495 0.016091585 0.58722478
0.43587834 0.018932462 0.69089872
0.43946439 0.018959761 0.69189459
0.46113962 0.019310176 0.70467895
0.11270809 0.0041384697 0.1510219
-0.080835134 0.0050035119 0.1704942
-0.080287516 0.0050842166 0.17324412
-0.23434666 0.015942931 0.5432542
-0.23865318 0.01656425 0.56442386
-0.21375453 0.015625954 0.5324524
-0.2094717 0.0156461 0.53313798
-0.20385635 0.016102672 0.54869431
-0.20125365 0.015988946 0.54482311
-0.17429709 0.015762687 0.53711146
-0.15456235 0.016473472 0.56133205
-0.16303945 0.017650962 0.60145575
-0.12175167 0.016417205 0.55941516
-0.12079838 0.019102693 0.65092093
-0.11643541 0.018846869 0.64220387
0.069014311 0.013900161 0.4736473
0.075155377 0.014499009 0.49405223
0.08385402 0.014361143 0.48935455
0.091263831 0.014712691 0.50133127
0.12503278 0.015304923 0.52150995
0.10783917 0.0110358 0.3760435
0.10857666 0.011029124 0.37581414
0.10981458 0.010680795 0.36394429
0.11153263 0.010771513 0.36703807
0.12026978 0.010781169 0.36736727
0.12225693 0.010680437 0.36393332
0.13206804 0.010656118 0.36310589
0.13394231 0.010681808 0.36398095
0.1405043 0.0105322 0.3588841
0.14107531 0.010349095 0.35264194
0.14809191 0.010472059 0.3568359
0.14939874 0.010403752 0.35450763
0.15314311 0.010248721 0.34922338
0.27400798 0.015160084 0.51657623
0.27213222 0.014817357 0.50490206
0.32094479 0.017135441 0.58388966
0.34345728 0.017137885 0.58397287
0.45998812 0.020696282 0.70522267
0.10868317 0.0043233633 0.14731628
0.11276978 0.0043967366 0.14981729
-0.18207124 0.016074419 0.51369983
-0.18139872 0.016410828 0.52445298
-0.18006629 0.016494155 0.52711505
-0.17308033 0.016800404 0.53689796
-0.16723579 0.017142355 0.5478254
-0.1674034 0.019477785 0.62246269
-0.12693918 0.019393563 0.61976939
-0.1184026 0.0192976 0.61670357
0.078909218 0.015368164 0.49112695
0.089742362 0.015425861 0.49297279
0.092918515 0.013999462 0.44738752
0.079490364 0.011734724 0.37501472
0.075880885 0.010463357 0.3343839
0.15101516 0.017385066 0.55558723
0.10990018 0.011397183 0.36422777
0.11690187 0.011321425 0.36180425
0.12141365 0.011381924 0.36373723
0.15201861 0.011008441 0.35180306
0.15258378 0.010941148 0.34965211
0.15453285 0.010867953 0.34731406
0.15626884 0.010833919 0.34622622
0.16386455 0.010945916 0.34980321
0.1641857 0.010868192 0.34731942
0.26827508 0.01589036 0.50781447
0.27237439 0.015813112 0.5053516
0.44191581 0.021625638 0.69110316
0.44903427 0.021612763 0.69069213
-0.23248023 0.017911673 0.5389275
-0.23997205 0.018673897 0.56186253
-0.23315173 0.01832664 0.55141264
-0.22959679 0.018138945 0.54576403
-0.2084651 0.017730534 0.53347796
-0.19774991 0.017792344 0.53533822
-0.17573738 0.017650127 0.53105646
-0.16547966 0.018944621 0.57000858
-0.1656082 0.01910007 0.57468253
-0.15668648 0.018766999 0.56466323
-0.14907461 0.020013452 0.60216647
-0.12495428 0.020490229 0.61651188
-0.12526041 0.020759344 0.62460881
-0.11199471 0.019828916 0.5966118
0.089336336 0.01612097 0.48504776
0.092948616 0.015852928 0.47698468
0.094538152 0.015446305 0.46475154
0.13105434 0.018497348 0.55654866
0.11286372 0.012173176 0.36626637
0.12189764 0.012215555 0.36754078
0.12887973 0.011916876 0.35855401
0.12936932 0.011821508 0.35568607
0.15961468 0.011588812 0.34868556
0.34096324 0.019844711 0.59709126
0.35593247 0.019825578 0.59651297
0.35399598 0.019577384 0.58904761
0.43923122 0.022678137 0.68234307
0.10818505 0.0048596859 0.14621758
0.10992312 0.0049235225 0.14813864
0.11212295 0.0049932599 0.15023786
0.11278653 0.0050085187 0.15069538
0.10216945 0.004398942 0.13235217
-0.22776675 0.019144297 0.54417843
-0.20972532 0.018778503 0.53378338
-0.17486402 0.019082785 0.54243118
-0.1625475 0.020142496 0.57255441
-0.15109551 0.020929337 0.59492081
-0.14956558 0.021627486 0.61476511
-0.13657355 0.020468116 0.58180863
-0.1366204 0.022754073 0.64678878
-0.12427652 0.021801114 0.61970264
-0.10169673 0.02123493 0.60360593
0.049754262 0.020385563 0.57946509
0.065734148 0.016350627 0.46477085
0.06592232 0.016153336 0.45916235
0.075971901 0.017326117 0.49250036
0.089723885 0.01733923 0.49287158
0.078174949 0.012974799 0.36880875
0.09979713 0.016398072 0.46611649
0.14012516 0.019353628 0.55012959
0.10900539 0.0135746 0.38586175
0.10702717 0.013228178 0.37601441
0.10923147 0.012826443 0.36459434
0.12297714 0.012637436 0.35922056
0.12955195 0.012385249 0.35205072
0.13802522 0.012609363 0.35842222
0.16127056 0.012279332 0.34904349
0.26788288 0.017624855 0.5009914
0.26690882 0.017490864 0.49718243
0.33809149 0.020521522 0.5833289
0.36135381 0.021304965 0.60559875
0.3608858 0.021051168 0.59838408
0.10593349 0.0050514936 0.14358926
-0.15958619 0.021684766 0.58411139
-0.15346009 0.022244513 0.59918851
-0.1325832 0.021357179 0.57528549
-0.1316787 0.023621082 0.63626987
-0.10115314 0.023480237 0.63247401
0.052117765 0.020968318 0.56481236
0.068961859 0.021710575 0.58480555
0.074584186 0.017007232 0.45811397
0.090732038 0.018503189 0.49840957
0.091184199 0.01776123 0.47842485
0.094394743 0.017597318 0.47400743
0.075985253 0.012430906 0.33484387
0.11974633 0.019227803 0.51792914
0.12557918 0.019979715 0.53818232
0.14265776 0.020449221 0.55082852
0.10985011 0.014435887 0.388852
0.12124437 0.01357162 0.36557102
0.12357056 0.013400197 0.36095411
0.12502486 0.013308644 0.35848796
0.13662821 0.012955844 0.34898371
0.13746285 0.012964249 0.34920901
0.14707237 0.013022065 0.35076624
0.16487443 0.013066292 0.35195917
0.33690798 0.02240622 0.60354382
0.32268989 0.021216869 0.57150847
0.33475518 0.021844804 0.58842212
0.36420161 0.022741079 0.61256558
0.36680651 0.022341609 0.60180289
0.10413688 0.0052402616 0.14115399
0.10094374 0.004827857 0.13004422
0.10631067 0.0050567389 0.1362083
-0.24270201 0.021659017 0.55438286
-0.23781553 0.021538377 0.5512957
-0.22829363 0.021201253 0.54266614
-0.21962944 0.020819664 0.53290063
-0.19805697 0.020590067 0.52702099
-0.1619575 0.022979796 0.58818918
-0.15160915 0.023321807 0.5969432
-0.1526143 0.02367568 0.6060006
-0.13272983 0.022500575 0.57592207
-0.12067598 0.023762822 0.60823148
-0.12036842 0.023960352 0.61328775
-0.11725116 0.024402857 0.62461334
-0.10507011 0.023471057 0.60076457
0.066447318 0.022014439 0.56348222
0.08793062 0.019095182 0.48875982
0.096826673 0.018794298 0.48105639
0.12819284 0.02088964 0.53469044
0.14357883 0.020637274 0.52822918
0.12255913 0.014344871 0.36716914
0.12921542 0.014044762 0.35948783
0.13338482 0.013839543 0.35423642
0.14310855 0.013472021 0.34482807
0.15033448 0.013728023 0.35138178
0.14976215 0.0136078 0.34830374
0.14808631 0.013323069 0.34101611
0.15384752 0.013380408 0.34248322
0.16056675 0.013514638 0.34592003
0.33448374 0.023590624 0.60382479
0.32709163 0.022212327 0.56854349
0.35812485 0.023532867 0.60234481
0.3670904 0.023529887 0.60226864
-0.081445128 0.0071094036 0.1733436
-0.22003758 0.022242546 0.54232854
-0.20930848 0.021730423 0.52984029
-0.18034399 0.023097038 0.56316382
-0.16575888 0.022426605 0.54681569
-0.16303015 0.022863507 0.55746728
-0.15903708 0.023873806 0.58210164
-0.15810949 0.024501204 0.59740013
-0.15461046 0.024967074 0.60876042
-0.12015107 0.024836957 0.60558563
-0.10288459 0.024731159 0.6030069
0.051227927 0.022769213 0.55516845
0.05913794 0.02217567 0.54069859
0.084048569 0.020116568 0.49049002
0.073511541 0.013412237 0.32702285
0.078715563 0.014093757 0.34363878
0.11243606 0.019583106 0.47748238
0.13225108 0.020437181 0.49830908
0.11682832 0.016961098 0.41355354
0.10890192 0.015459478 0.37694001
0.13399434 0.01451236 0.35384661
0.15991026 0.013873696 0.33827519
0.27384597 0.021088958 0.51419908
0.32243276 0.023157656 0.56464094
0.33689058 0.023751497 0.57912129
0.35503644 0.024579346 0.59930474
-0.082873434 0.0075086951 0.17479324
-0.081526488 0.007522285 0.17510992
-0.2216872 0.022869349 0.53237182
-0.22178185 0.023358583 0.54376298
-0.18235937 0.022648454 0.52723032
-0.17175868 0.022887588 0.53279835
-0.16072428 0.024691343 0.57478708
-0.13652316 0.024758339 0.57634622
-0.13645935 0.024972022 0.58132201
-0.12300321 0.024041891 0.55966955
-0.12558946 0.025285125 0.58860976
-0.12579456 0.026111126 0.60783798
0.067860484 0.02472055 0.57546562
0.084013283 0.024062634 0.56015235
0.097523451 0.020594895 0.47942728
0.074109316 0.01429826 0.332847
0.11265242 0.020739138 0.48278338
0.13321036 0.021914303 0.51014048
0.15244371 0.023719311 0.55215937
0.12899739 0.015416622 0.35888124
0.13632852 0.015123665 0.35206217
0.14219803 0.015187979 0.35355937
0.15240061 0.01464355 0.34088439
0.1555931 0.014533401 0.33832073
0.18001634 0.015583515 0.36276549
0.27738625 0.022555232 0.52506095
0.27421778 0.021855474 0.50877148
0.33144093 0.026208401 0.61010212
0.1071983 0.0064473152 0.15008658
0.10554749 0.0059392452 0.13825935
0.1039536 0.0058332682 0.13579136
0.10082132 0.0056260824 0.13096839
0.10656941 0.0058653951 0.13653976
-0.22029853 0.024380445 0.54297191
-0.21860129 0.024320602 0.54164189
-0.20223683 0.02402693 0.53510016
-0.19510522 0.023579717 0.52513999
-0.18430212 0.02334857 0.51999396
-0.17996761 0.023363113 0.52031547
-0.18374947 0.024152458 0.53789705
-0.16725928 0.023609877 0.52581316
-0.16887733 0.024496734 0.54556316
-0.15589419 0.024472117 0.54501587
-0.15016216 0.027002394 0.60136753
-0.13147587 0.025855303 0.57582098
-0.124219 0.025134146 0.55975789
-0.12814713 0.026967824 0.60059708
-0.11257035 0.0272367 0.60658437
0.057150006 0.023929834 0.53293699
0.083720922 0.024712086 0.55036014
0.08435601 0.02105391 0.46889001
0.08723551 0.021516979 0.47920257
0.076424778 0.015869439 0.35342455
0.13752764 0.023267627 0.51819068
0.14270812 0.023761392 0.5291869
0.13671941 0.015853465 0.35307163
0.14320594 0.015903413 0.35418314
0.14384323 0.015724778 0.3502056
0.15863901 0.015275598 0.34020054
0.2760219 0.022994995 0.51211888
0.33216113 0.027454197 0.61142784
0.35388845 0.026441216 0.58886892
0.35964614 0.026587725 0.59213167
0.10874534 0.0068776011 0.15316933
0.10547972 0.0062041283 0.13817066
-0.23894337 0.025693834 0.54847509
-0.23489553 0.025764227 0.54997665
-0.22276539 0.025190115 0.53772098
-0.22377899 0.025568545 0.54579943
-0.1861223 0.026178896 0.55882889
-0.15783751 0.027276874 0.58226615
-0.15572485 0.027563691 0.58839017
-0.15535691 0.027950048 0.59663659
-0.15345177 0.028304338 0.60419828
-0.12590879 0.030052423 0.64151627
0.061547101 0.025369883 0.54155964
0.069259226 0.026551425 0.56678146
0.081214547 0.02573359 0.54932052
0.082201123 0.021661937 0.4624055
0.072608709 0.016210496 0.34603804
0.075538456 0.016527891 0.35281289
0.074771821 0.015435636 0.32949656
0.13255596 0.024795473 0.52929598
0.13540906 0.024492979 0.52283996
0.13686943 0.024355173 0.51989752
0.14557761 0.02528882 0.53982729
0.10820955 0.017676711 0.37733489
0.11009055 0.017850935 0.38105428
0.11670452 0.018647373 0.39805728
0.15099734 0.016700268 0.35649294
0.31793243 0.02608192 0.55676001
0.329763 0.026653528 0.5689593
0.3333621 0.026649594 0.56887561
0.3406772 0.027037024 0.5771485
0.34655052 0.027403951 0.58498055
0.35144717 0.027691364 0.59111339
0.3624981 0.027860999 0.59473425
0.10663861 0.0069734454 0.14885765
0.10658318 0.0069284439 0.14789772
0.10699224 0.006754756 0.14418888
0.10859537 0.0067394972 0.14386302
0.10817623 0.006675601 0.1425007
0.10444194 0.0063911676 0.13642919
-0.081140637 0.0086219907 0.17671496
-0.23970407 0.026845455 0.55022126
-0.23702487 0.026941955 0.55219871
-0.22188598 0.026132107 0.53559834
-0.20661432 0.026374519 0.54056853
-0.1957922 0.025860786 0.53003818
-0.18537432 0.025518298 0.52301925
-0.18007809 0.025559902 0.52387208
-0.17777112 0.025390387 0.52039653
-0.17198998 0.027297258 0.55948144
-0.15741524 0.026455581 0.54223019
-0.15952644 0.028488338 0.58389276
-0.15477949 0.028765798 0.58957952
-0.14326975 0.028732061 0.58888704
-0.13387084 0.028080583 0.57553524
-0.13137072 0.027811766 0.57002467
-0.1302771 0.030091882 0.61675817
-0.1067701 0.028070509 0.57532984
-0.10305691 0.028063893 0.5751949
0.054190338 0.0246557 0.50533801
0.080502212 0.022363544 0.45835996
0.084004402 0.022253156 0.45609838
0.098302722 0.024084449 0.49363178
0.079886436 0.018766761 0.38464034
0.076322377 0.016256571 0.33319139
0.12220174 0.025092244 0.51428646
0.1375736 0.025496483 0.52257234
0.10599166 0.01816833 0.37237638
0.15141898 0.017267704 0.35391647
0.1520347 0.016998291 0.34839374
0.27637917 0.025218785 0.51688117
0.3353743 0.028980255 0.59397358
0.35618895 0.028917909 0.59269696
0.10681623 0.0072748661 0.14910543
0.106709 0.0072460175 0.14851272
-0.24332941 0.027792156 0.54779285
-0.17756566 0.026705861 0.52638203
-0.17885619 0.028915286 0.56992966
-0.17363662 0.028263867 0.5570913
-0.16646856 0.028059125 0.5530563
-0.15349001 0.029187679 0.57529992
-0.15542284 0.030788541 0.60685223
-0.13071269 0.028775215 0.56716925
-0.12065729 0.027584851 0.54370803
-0.1182335 0.030899584 0.60904282
0.074666977 0.027195334 0.53603011
0.079375923 0.023501396 0.46322113
0.13730299 0.026460528 0.5215444
0.10763681 0.01904273 0.37533778
0.11313778 0.019578099 0.38589185
0.15646583 0.017671525 0.34831214
0.28290361 0.027168691 0.53550476
0.27952075 0.02610445 0.51452976
0.33333927 0.028859854 0.56883651
0.34742862 0.029754043 0.58646268
0.35679704 0.030337453 0.59796196
0.36131477 0.030075192 0.59279281
-0.084211022 0.0093989372 0.17841882
-0.081864417 0.0093922615 0.17829138
-0.24075207 0.029400349 0.55810302
-0.2261647 0.028611243 0.54312426
-0.22188714 0.02850914 0.54118544
-0.15369585 0.03010571 0.57149321
-0.14957505 0.031555653 0.59901637
-0.14091435 0.029985189 0.56920451
0.048709691 0.030647635 0.58178121
0.048636973 0.029115319 0.55269343
0.050503135 0.028179228 0.53492254
0.052957892 0.028894842 0.5485068
0.065798104 0.029393673 0.55797619
0.0825091 0.020714521 0.39322138
0.075068772 0.01742661 0.33080506
0.087092221 0.019843817 0.37669283
0.12576002 0.027880907 0.52926165
0.1280362 0.027884007 0.52931839
0.10413384 0.019272625 0.36584944
0.10852951 0.01978898 0.37565082
0.16552323 0.018198669 0.34546292
0.32028645 0.030576706 0.58043486
0.34784973 0.030931771 0.5871734
0.1076954 0.0079194307 0.15033263
0.10723698 0.0078389645 0.1488049
-0.24510518 0.030286372 0.55445844
-0.24198428 0.030490398 0.55819374
-0.17785022 0.028798819 0.52722555
-0.162965 0.031834483 0.58280033
-0.15371442 0.031470776 0.57614118
-0.15551701 0.033447504 0.61233002
-0.12826952 0.030401647 0.55656821
0.048160493 0.032243669 0.59029108
0.049656987 0.031590402 0.57833141
0.048635662 0.029473305 0.53957337
0.078294158 0.027724385 0.50755483
0.12741077 0.028771937 0.52673274
0.1062116 0.02023077 0.370368
0.16670197 0.018920362 0.34637809
0.32480735 0.032152772 0.58862776
0.32029289 0.03063786 0.56089348
0.33285195 0.031369567 0.57428867
0.337659 0.031474352 0.57620817
0.36009043 0.032729626 0.59918875
0.11033779 0.0085147619 0.15588158
0.10696679 0.0081318617 0.14887148
0.10757369 0.0078735352 0.14414209
-0.24411106 0.031542301 0.55760151
-0.17280501 0.029925942 0.52902895
-0.17118719 0.030239463 0.5345698
-0.16245049 0.030748308 0.54356688
-0.15859583 0.034453988 0.60907513
-0.12926966 0.031437755 0.55575377
-0.12757659 0.031606793 0.55874354
-0.11716411 0.031376898 0.55467862
0.051119626 0.032860518 0.58090609
0.064838171 0.032272935 0.57051748
0.068981826 0.028013349 0.49521714
0.070920587 0.028365374 0.50144106
0.078684509 0.028076291 0.49633104
0.091659844 0.027828753 0.49195451
0.081362188 0.020871401 0.36896366
0.1285004 0.02978766 0.52658433
0.13864094 0.031315446 0.5535931
0.33319002 0.03228116 0.57066339
0.33264774 0.032111108 0.56765646
-0.24336609 0.032212377 0.55052429
-0.23896271 0.032253146 0.5512237
-0.23317024 0.032104492 0.54868275
-0.17325419 0.030243456 0.5168758
-0.1609199 0.031505525 0.53844553
-0.11973703 0.033167958 0.56685895
-0.11905029 0.033314943 0.56936914
-0.1180715 0.033382237 0.57051975
-0.11052954 0.033685148 0.57569641
-0.10204273 0.033324599 0.5695346
-0.10547733 0.03617239 0.61820322
0.06275177 0.027631104 0.47222894
0.072940052 0.028867006 0.49335295
0.077591479 0.030270338 0.51733547
0.096056342 0.031241059 0.53392595
0.073380291 0.020462573 0.34971511
0.074160278 0.020471573 0.34986866
0.081321597 0.021167755 0.36176682
0.27354687 0.030053973 0.51363736
0.27511841 0.030105829 0.51452333
0.32416672 0.034109592 0.58295089
0.32690078 0.033001959 0.56402093
0.35430056 0.03437376 0.58746511
0.0995965 0.0082330704 0.14070666
-0.084202319 0.011086702 0.18338293
-0.23304531 0.032987714 0.54564458
-0.18047208 0.031740725 0.52501827
-0.18000653 0.031856954 0.52694041
-0.17914915 0.032106996 0.53107625
-0.16283727 0.032706439 0.54099208
-0.1497834 0.034214735 0.56594115
-0.11947531 0.035265803 0.58332747
-0.11670971 0.035562873 0.58824033
-0.10559273 0.036952317 0.61122268
0.078101099 0.029783964 0.49265093
0.093787968 0.030432284 0.50337631
0.076060832 0.022370577 0.37002861
0.082924545 0.022302151 0.36889768
0.086898625 0.02272296 0.37585574
0.12092346 0.031330287 0.51822954
0.1380865 0.033334374 0.5513795
0.10714054 0.022587001 0.37360734
0.09979409 0.008447051 0.13972014
-0.24045101 0.034441233 0.55193573
-0.22762316 0.034285843 0.54944688
-0.15816462 0.035843849 0.57441431
-0.15015453 0.034839928 0.55832571
-0.13515225 0.034362972 0.5506832
-0.10487029 0.03884083 0.62244231
0.049222648 0.036685824 0.58790749
0.05163753 0.035748005 0.57287759
0.071259439 0.031439781 0.50383681
0.079289973 0.021400094 0.34294635
0.12073505 0.031994462 0.51272565
0.13460118 0.03190428 0.51128179
0.13347071 0.031381607 0.50290459
0.20033079 0.0255211 0.40898746
0.27138895 0.031926632 0.51163882
0.27190113 0.031858504 0.51054722
0.27230728 0.031778574 0.50926584
-0.080242932 0.011350632 0.17640215
-0.081590772 0.011595786 0.18021196
-0.24418578 0.035715461 0.55506223
-0.18048096 0.03420943 0.53165573
-0.13576493 0.034396172 0.53455848
-0.1391151 0.037451148 0.58203679
-0.12543315 0.037083983 0.57633084
0.047502518 0.037463367 0.58222646
0.072472692 0.032004118 0.49738282
0.094979525 0.03280127 0.50977165
0.11136395 0.02498734 0.38833445
0.19729602 0.026031196 0.40455717
0.27388996 0.032827854 0.51018649
0.30452222 0.035927355 0.55835444
0.33438605 0.036583245 0.56854922
0.095318556 0.008664906 0.13466287
-0.22911549 0.036286891 0.54740101
-0.18028706 0.034340441 0.51803809
-0.15303054 0.038022041 0.5735777
-0.13952425 0.038016379 0.57349163
-0.11295113 0.038149238 0.57549614
0.049367845 0.039087057 0.58964258
0.051813543 0.039030671 0.58879143
0.080607355 0.031576931 0.47634941
0.096847594 0.031560659 0.4761048
0.1377278 0.035545468 0.53621799
0.14017391 0.035878241 0.54123789
0.13825232 0.034811914 0.52515048
0.11023885 0.02606523 0.39320302
0.30059952 0.036679924 0.5533306
0.3228085 0.038042903 0.57389098
0.09621495 0.0089031458 0.13430709
-0.07896632 0.012071967 0.17692089
-0.2287707 0.036548436 0.53563625
-0.22674018 0.037153721 0.54450649
-0.22823444 0.037591457 0.55092245
-0.18027437 0.035345137 0.51800126
-0.16267338 0.039394379 0.57734472
-0.1465376 0.038086951 0.55818468
-0.14366528 0.042933106 0.6292066
-0.1295194 0.04060626 0.59510595
-0.12614289 0.040339947 0.59120351
-0.12110084 0.03951937 0.57917649
-0.10922167 0.038389683 0.56262106
0.070450723 0.03504777 0.51364368
0.072500944 0.032520294 0.47660261
0.073908269 0.032692254 0.47912258
0.10600215 0.035934687 0.52664214
0.12864822 0.037278175 0.54633075
0.19935602 0.02753067 0.4034763
0.30678946 0.038382232 0.56251162
0.33292717 0.037935615 0.55596644
0.096098483 0.0092081428 0.13494968
0.099908531 0.0094317198 0.13822579
-0.12449789 0.016428173 0.23409295
-0.079694211 0.012530446 0.17855173
-0.24071264 0.038967013 0.55526036
-0.22968644 0.03774035 0.53778011
-0.23211229 0.038330793 0.54619342
-0.22982228 0.038931608 0.55475527
-0.18146342 0.037278891 0.53120524
-0.18225721 0.037677705 0.53688794
-0.17957208 0.037595987 0.5357241
-0.17422655 0.041808724 0.59575206
-0.16437876 0.040633321 0.57900494
-0.15478972 0.038553238 0.54936463
-0.14297369 0.040882349 0.58255213
0.053911865 0.039186478 0.55838794
0.068302989 0.040648341 0.57921904
0.074465513 0.033877373 0.48273474
0.08629626 0.036715984 0.5231846
0.10533327 0.037119627 0.52893549
0.12550074 0.038093925 0.54281837
0.13304859 0.037282944 0.53126305
0.10539436 0.026181996 0.37307924
0.31618267 0.03974992 0.5664162
0.3344087 0.040342093 0.57485491
0.33384031 0.039123654 0.55749136
0.11059254 0.011098862 0.15815169
0.10058779 0.0099728107 0.14210701
0.10418105 0.010115206 0.14413685
-0.12571657 0.017186761 0.23829985
-0.079606295 0.012681186 0.17582864
-0.23450592 0.039014101 0.54094321
-0.23409954 0.039531171 0.54811281
-0.2402277 0.040770054 0.56528991
-0.18239251 0.038268507 0.53060514
-0.17689037 0.038304925 0.53111035
-0.15672293 0.037287772 0.51700729
-0.15915334 0.041049838 0.56916922
-0.15127033 0.040892005 0.56698042
-0.13636005 0.039051235 0.54145843
-0.13919717 0.040205002 0.55745524
-0.11360472 0.040003777 0.55466491
0.057431698 0.041082501 0.56962401
0.067846775 0.041495442 0.57534951
0.079914927 0.034496009 0.47829849
0.08200103 0.034088314 0.47264546
0.1196692 0.03767848 0.52242523
0.13177663 0.038276315 0.53071362
0.31679738 0.040930688 0.56751722
0.32218105 0.040844321 0.56631976
0.11439961 0.012019336 0.16665214
0.11380321 0.011846006 0.16424912
0.11359817 0.011788368 0.16344899
0.10827321 0.011099219 0.15389413
-0.082145154 0.012890697 0.17404187
-0.081259668 0.012987018 0.17534178
-0.24078828 0.041756749 0.56377357
-0.23460454 0.041943789 0.56629878
-0.16339245 0.042950988 0.57989675
-0.14695868 0.041126728 0.55526799
0.088885486 0.036164165 0.48826605
0.093601048 0.036787093 0.49667555
0.12587321 0.038542509 0.52037615
0.13344282 0.039131463 0.52832848
0.16810924 0.025987089 0.35086024
0.19968718 0.03032738 0.40946025
0.29895377 0.040758967 0.55030113
0.10914052 0.011454999 0.15465707
0.10670704 0.011165738 0.15075213
0.10743588 0.011074781 0.14952445
0.10676521 0.010940611 0.14771217
-0.080869794 0.013325453 0.175309
-0.16114771 0.043473005 0.57192999
0.049172044 0.040505409 0.53288919
0.058792233 0.042520642 0.55940109
0.091100276 0.037596941 0.49462491
0.099152625 0.038676023 0.50882155
0.12215418 0.03872788 0.50950342
0.13574576 0.039193511 0.51562935
0.1041137 0.028013587 0.36854595
0.27148253 0.040880203 0.53782052
0.27365088 0.041033089 0.53983051
0.27302825 0.040094435 0.52748209
0.27768821 0.040444732 0.53209072
0.10897869 0.011702776 0.15396148
0.10848528 0.011579931 0.15234441
0.10843211 0.011470914 0.15091079
-0.08300513 0.013647735 0.17507106
-0.082607627 0.013706028 0.17581785
-0.080518067 0.013734102 0.17617917
-0.2505376 0.044395566 0.56950063
-0.2397292 0.043322206 0.55573183
-0.2420325 0.045078576 0.57826191
-0.22942206 0.043620944 0.5595631
-0.20428124 0.041203499 0.52855319
-0.18093574 0.040779471 0.52311438
-0.17168522 0.043236613 0.55463415
-0.16106787 0.044562817 0.57164627
-0.14855158 0.043059766 0.55236512
-0.13538134 0.041553915 0.53304797
0.05457449 0.042196095 0.54128557
0.064099371 0.043156445 0.55360538
0.084401786 0.037012041 0.47478527
0.096164465 0.039332747 0.50455528
0.10419601 0.040355086 0.5176689
0.12437314 0.040082633 0.51417452
0.10642582 0.029368162 0.37673062
0.17451876 0.028268099 0.36261994
0.27082932 0.042002916 0.53880793
0.27875763 0.041810274 0.53633624
0.29515368 0.042689502 0.54761511
0.10950035 0.012132823 0.1556384
-0.080756307 0.014118314 0.17670059
-0.23885036 0.044239998 0.55369455
-0.23594397 0.044360995 0.55520982
-0.18108642 0.041831493 0.52355009
-0.1796979 0.042030036 0.52603668
-0.14806414 0.043988943 0.55055267
-0.13831753 0.043150902 0.54006416
0.10305673 0.041796923 0.5231182
0.10478282 0.041594505 0.52058417
0.077556193 0.030463099 0.38126773
0.073513687 0.027992904 0.35035115
0.12640691 0.041029096 0.5135079
0.13112652 0.041132331 0.51480097
0.13686234 0.040873766 0.5115642
0.13573956 0.039589524 0.49549168
0.10821313 0.012402356 0.15522343
0.1092096 0.012440205 0.15569806
0.10938901 0.012200475 0.15269685
-0.0820252 0.014288247 0.17457825
-0.25548306 0.04640305 0.56696934
-0.22626895 0.0449332 0.54901046
-0.22476861 0.045103133 0.55108613
-0.21647799 0.044849634 0.54798895
-0.21227193 0.044951022 0.54922801
-0.18155986 0.041925192 0.51225716
0.073143899 0.042975903 0.52509588
0.091715515 0.040287912 0.49225312
0.095204294 0.034336567 0.41953629
0.12726295 0.041947961 0.51253539
0.11566585 0.032525718 0.3974117
0.27683252 0.044695497 0.54610711
0.28590423 0.043414474 0.5304541
0.29752666 0.044300914 0.54128534
0.3026616 0.044545829 0.54427809
0.31336397 0.045595288 0.55710036
0.10783577 0.01269877 0.15515786
0.10907942 0.012727797 0.15551257
0.11013901 0.012658596 0.15466666
0.10963094 0.01248771 0.15257937
-0.080750555 0.014599562 0.17424327
-0.080714107 0.014660597 0.17497158
-0.25137928 0.047417045 0.56591493
-0.21354562 0.045788646 0.54647964
-0.20817128 0.045634568 0.54464191
-0.19778067 0.045387208 0.54168969
-0.16894704 0.045107722 0.53835386
-0.16498858 0.044353008 0.52934557
-0.15178061 0.050073445 0.59761828
-0.15027869 0.049998701 0.5967266
0.054421425 0.045226097 0.53976721
0.13189918 0.043027401 0.51352555
0.13750583 0.042723238 0.5098955
0.13603556 0.0412848 0.49272829
0.19973212 0.034165859 0.40776539
0.28479511 0.047073483 0.56181473
0.27904481 0.045170784 0.53910595
0.28936213 0.046267629 0.55219811
0.30014831 0.045399845 0.54184097
0.3082307 0.046088934 0.55006462
0.31069094 0.046280384 0.5523482
0.1090619 0.012988508 0.15501517
-0.083811611 0.015293002 0.17838031
-0.080541968 0.014899731 0.17379314
-0.23925772 0.047550678 0.55463892
-0.21514857 0.046692014 0.54462367
-0.20723471 0.046744943 0.5452407
-0.20239112 0.046171665 0.53855401
-0.20147413 0.046225369 0.53918058
-0.17025745 0.048152268 0.56165606
0.057034194 0.045597553 0.53185755
0.068204582 0.047029138 0.54855603
0.068053365 0.045365214 0.52914757
0.068324745 0.042707145 0.49814337
0.070535958 0.043412745 0.50637418
0.093881965 0.040417135 0.47143263
0.081814885 0.034481943 0.4022035
0.08455354 0.032557428 0.37975508
0.10983324 0.040727496 0.47505289
0.16374326 0.029562712 0.34482443
0.28195494 0.045571864 0.53155822
0.28741676 0.045358062 0.52906424
0.30299836 0.047076106 0.54910487
0.10804063 0.01332736 0.15545261
0.10965407 0.013162196 0.15352494
-0.082973748 0.015343904 0.17500484
-0.23736903 0.046627998 0.53181559
-0.23890013 0.047612727 0.54304725
-0.23449993 0.04838115 0.55181164
-0.23077029 0.049349129 0.56285149
-0.22924042 0.049278855 0.56205004
-0.1828618 0.04635334 0.52868313
-0.16899389 0.04626894 0.52772075
-0.16649473 0.046201408 0.52695066
0.065655291 0.047946453 0.5468542
0.074827671 0.043128133 0.491898
0.093185961 0.036003828 0.41064197
0.11920172 0.043984056 0.50166076
0.11428183 0.034426928 0.39265645
0.16488022 0.030443072 0.34721869
0.29036325 0.050010383 0.57039398
0.27855456 0.047379732 0.54039019
0.28259712 0.04690057 0.53492457
0.10832936 0.01333797 0.15212542
-0.08166647 0.015648723 0.17460901
-0.079043925 0.015500367 0.17295367
-0.23266912 0.049819648 0.5558911
-0.198946 0.048548758 0.54171044
-0.18315446 0.04805088 0.53615552
-0.18140346 0.0478912 0.5343731
-0.18026632 0.047892511 0.53438777
-0.17066899 0.047134578 0.52593106
-0.16777462 0.047269344 0.52743369
0.053373098 0.047442675 0.52936918
0.063867867 0.047675371 0.53196603
0.074544549 0.045850396 0.51160175
0.0786798 0.04508698 0.503084
0.12336808 0.047383249 0.52870649
0.16434771 0.031017721 0.34609747
0.27751333 0.047462225 0.52958661
0.10731643 0.013587773 0.15161312
-0.081869036 0.015954971 0.17424589
-0.080729216 0.015950501 0.1741972
-0.079519957 0.015857816 0.17318535
-0.23696125 0.048612356 0.53090197
-0.23143804 0.048643947 0.5312472
-0.22431692 0.049073339 0.53593618
-0.2119225 0.048595071 0.53071433
-0.20508677 0.050255597 0.54884845
0.050158143 0.048645973 0.53126949
0.066635847 0.048244238 0.52688187
0.07284826 0.051865578 0.56643039
0.10210353 0.046947241 0.51271743
0.076193511 0.033591747 0.36685938
0.08498323 0.034949183 0.38168484
0.13106024 0.047918439 0.5233236
0.10936785 0.034662426 0.37855268
0.10510343 0.013637424 0.14893639
0.10613114 0.013729274 0.14993858
-0.23395547 0.051740408 0.55331355
-0.21470779 0.050279319 0.53768951
-0.19356757 0.049866199 0.53327245
-0.17914012 0.050295711 0.53786522
-0.16648299 0.049607217 0.53050226
-0.16263223 0.050168157 0.53650123
0.060161471 0.049501061 0.52936655
0.06275928 0.0497666 0.53220695
0.09758532 0.048976421 0.52375728
0.098623276 0.048936009 0.52332491
0.10097802 0.047930121 0.5125671
0.076192558 0.034304619 0.36685503
0.094164252 0.039171159 0.41889858
0.14012253 0.048975825 0.52375013
0.28435749 0.053126574 0.56813782
0.10472023 0.014003515 0.14975405
-0.11892325 0.020842135 0.21834612
-0.11811721 0.020782351 0.21772057
-0.11543226 0.021406293 0.22425693
-0.1803726 0.049170434 0.51512009
-0.16793931 0.050736129 0.53152269
-0.16456848 0.050399542 0.52799731
0.048102498 0.053476036 0.56022745
0.049101949 0.051998377 0.5447467
0.05425483 0.050299048 0.52694386
0.09995693 0.046905279 0.49139029
0.12078732 0.049868345 0.52243167
0.10990298 0.036044657 0.37761128
0.28566402 0.054248691 0.56832129
-0.11944762 0.021111846 0.216757
-0.11446381 0.020878792 0.21436435
-0.11428508 0.020929933 0.21488982
-0.11547977 0.021494329 0.22068375
-0.20916373 0.050211728 0.51552767
-0.16689938 0.05144906 0.52823132
-0.15561521 0.049999893 0.51335317
0.062751353 0.051829696 0.53213996
0.10234594 0.049524963 0.50847739
0.12332839 0.050552607 0.51902789
0.12685341 0.051078618 0.52442843
0.13183135 0.05083704 0.5219484
0.14434838 0.051724434 0.53106016
0.14898431 0.052969217 0.54383951
0.10737938 0.036469877 0.37444007
0.1000765 0.013896585 0.14267725
0.10613513 0.014473319 0.14859807
0.10733753 0.014550149 0.14938742
-0.1196714 0.021742284 0.21886081
-0.081807733 0.017297149 0.17411542
-0.22534576 0.051386297 0.51726276
-0.16640526 0.051622272 0.51963717
-0.15955836 0.051563025 0.51904148
0.060628176 0.052996814 0.53347379
0.064933717 0.051881671 0.52224904
0.069432676 0.050289512 0.50622135
0.10182172 0.051345229 0.51684946
0.1304639 0.051751852 0.52094239
0.1365754 0.051959038 0.523027
0.1092729 0.037573874 0.37822413
0.1026426 0.014449358 0.14544928
-0.11678544 0.021976888 0.21697527
-0.11555654 0.023122847 0.22829014
-0.11480212 0.02316761 0.22873139
-0.21437466 0.052412868 0.5174672
-0.17743996 0.050403714 0.49763209
-0.18449515 0.055047631 0.54348046
0.056548417 0.053411484 0.5273276
0.065749526 0.051781535 0.51123434
0.069702804 0.051473141 0.50819045
0.091067731 0.050081313 0.49444824
0.093055189 0.050587177 0.49944347
0.12826127 0.053236961 0.52560443
-0.11957344 0.021563411 0.20888358
-0.11946654 0.022037804 0.2134794
-0.11994272 0.022556424 0.21850288
-0.11716357 0.023400486 0.22667927
-0.18035495 0.050695896 0.49108893
0.057881653 0.053584337 0.51906878
0.060402453 0.053853512 0.52167624
0.065334976 0.052442789 0.5080108
0.068501711 0.052373409 0.50733966
0.1240837 0.055403292 0.53668946
0.13912195 0.054113746 0.52419764
0.11249572 0.040495813 0.39228123
-0.11966977 0.021987259 0.20905191
-0.120942 0.023263276 0.22118449
-0.18275705 0.053268611 0.50647217
0.045920551 0.054883361 0.5218249
0.068485975 0.053347588 0.50722271
0.074114859 0.052724481 0.50129884
0.083044529 0.051615179 0.49075133
0.09884876 0.052206516 0.49637359
0.099761724 0.052129149 0.49563831
0.079056919 0.04045105 0.38460428
0.087407827 0.040133595 0.38158554
0.13526988 0.054933608 0.52230233
0.14318091 0.055402994 0.52676505
0.10852575 0.040404797 0.38416404
0.099683404 0.014901817 0.14168507
0.10518974 0.015536249 0.14771646
0.10695916 0.015703261 0.14930499
-0.11980036 0.023197711 0.2165572
-0.12066796 0.02354753 0.21982396
-0.18609023 0.053043544 0.49517804
0.066191256 0.054230154 0.50625569
0.071980596 0.054517269 0.50893563
0.073271513 0.053866982 0.5028649
0.086297393 0.040356278 0.37673795
0.13227844 0.056579649 0.52818793
0.10426939 0.015732288 0.14686489
0.10768789 0.01605463 0.14987504
-0.12077427 0.023628116 0.21664363
-0.12326583 0.024977446 0.22901529
-0.080628306 0.019241273 0.17642039
-0.090061754 0.021695375 0.1989221
-0.18527949 0.054078579 0.49584061
-0.18558365 0.055762172 0.51127726
0.071040869 0.055622816 0.50999886
0.074133456 0.055489898 0.50878054
0.079074085 0.052971721 0.48569256
0.081728041 0.03927958 0.36015034
0.14388114 0.058189869 0.53353661
0.10798389 0.041376412 0.37937552
0.10959786 0.041681767 0.3821761
0.10301453 0.015920877 0.14597631
-0.12857524 0.025311589 0.22801423
-0.12961289 0.026008844 0.23429483
-0.082782149 0.019470036 0.17539144
-0.079113305 0.019126773 0.17229974
-0.20076075 0.058967352 0.53119451
0.073835611 0.056252182 0.50673598
0.079002976 0.051826477 0.46686798
0.082000792 0.052467644 0.47264415
0.095157921 0.053619981 0.48302406
0.095650971 0.053319275 0.48031586
0.081764817 0.044156849 0.39777774
0.13970119 0.059389412 0.53499752
0.11457026 0.046066403 0.41497976
0.10551953 0.041780353 0.37637001
0.1087901 0.042112231 0.3793593
0.18946099 0.042751253 0.38511574
-0.12874016 0.025594056 0.22658914
-0.12144256 0.025587022 0.22652739
-0.11580479 0.025732875 0.22781867
0.067427397 0.056406856 0.49938279
0.1384359 0.058917761 0.52161282
0.18904841 0.045171618 0.39991421
0.20204562 0.047002077 0.41612011
0.10129601 0.01636219 0.14485723
-0.12852129 0.025796235 0.22451466
-0.12803483 0.0258919 0.2253477
-0.12421891 0.025899649 0.22541517
-0.12376219 0.025904894 0.22546095
-0.12159488 0.025650978 0.2232511
-0.11817116 0.026377916 0.22957796
-0.079822958 0.019974351 0.17384517
-0.20723262 0.06372118 0.55459148
0.080232203 0.052487731 0.45682198
0.090744555 0.057273984 0.49847835
0.085424304 0.042452157 0.36947894
0.19400907 0.046732187 0.40672994
-0.12832835 0.026490092 0.22671705
-0.121039 0.02596581 0.22223055
-0.11647391 0.026772559 0.22913498
-0.114732 0.026823282 0.2295692
-0.080217689 0.020412862 0.17470497
0.07618016 0.056913853 0.48710102
0.079743445 0.057229519 0.48980361
0.092880189 0.057585537 0.49285024
0.082451046 0.045449376 0.38898236
0.19771212 0.048000097 0.41081172
0.1046952 0.017230093 0.14746457
-0.12417874 0.025672257 0.21612155
-0.11516112 0.027255177 0.22944671
-0.081373036 0.021249294 0.17888659
-0.20308349 0.063469708 0.53431875
0.11927855 0.049778104 0.41905671
0.14023334 0.04163903 0.3505373
0.10261273 0.017324805 0.14584863
-0.11807132 0.027809143 0.23034054
-0.082519621 0.022004843 0.18226355
0.074304521 0.059812307 0.49542016
0.076412976 0.057418287 0.47559065
0.0803141 0.056585968 0.4686963
0.088462055 0.060078561 0.49762505
0.096300423 0.050286651 0.4165206
0.11674207 0.048784435 0.40407693
-0.11381426 0.027125061 0.22111356
-0.11818045 0.028283119 0.23055339
-0.11740282 0.028214693 0.22999531
-0.11495447 0.028216958 0.23001438
-0.082477152 0.021632791 0.17634237
0.086588919 0.057673216 0.47013062
0.092528939 0.059556186 0.48548037
0.076755762 0.041887939 0.34145528
0.10939872 0.048609674 0.39624804
0.14113355 0.043278098 0.35278744
0.19798094 0.050241649 0.4095515
-0.11483121 0.028633475 0.2297678
-0.081285954 0.021959305 0.17621118
-0.080993474 0.021982193 0.17639446
0.095189333 0.058935106 0.47292179
0.073142767 0.043440163 0.3485834
0.087765932 0.04730624 0.37960678
0.19204831 0.050174057 0.40261936
-0.080023706 0.022265136 0.17592019
-0.08430019 0.0237903 0.18797106
0.093170166 0.065545082 0.517883
