# .PCD v0.7 - Point Cloud Data file format
VERSION 0.7
FIELDS x y z
SIZE 4 4 4
TYPE F F F
COUNT 1 1 1
WIDTH 1346
HEIGHT 1
VIEWPOINT 0 0 0 1 0 0 0
POINTS 1346
DATA ascii
-0.079799533 -0.033451349 0.16245133
0.087501884 -0.035246938 0.17117125
0.080949485 -0.032071233 0.15574878
0.078408957 -0.029837638 0.14490181
0.078132033 -0.029043883 0.14104736
0.078281045 -0.028766394 0.13969928
0.096271574 -0.032869875 0.15962762
0.10298276 -0.034913868 0.1695537
0.11841685 -0.038781643 0.18833727
0.11574459 -0.03777808 0.18346351
0.10967523 -0.029833883 0.14488333
-0.078129888 -0.03301686 0.16186959
0.089441717 -0.035246074 0.17279845
0.078698754 -0.029548407 0.14486516
0.081511319 -0.030484438 0.14945441
0.085538805 -0.030439943 0.14923602
0.088425457 -0.031004727 0.1520049
0.088228643 -0.03016004 0.14786369
0.10890102 -0.029343486 0.14386064
-0.081638604 -0.033143401 0.16405368
-0.077501297 -0.032728851 0.16200197
0.095846832 -0.037721574 0.18671507
0.08249861 -0.031548768 0.15616047
0.078191757 -0.029308856 0.14507347
0.090963542 -0.033827871 0.16744173
0.08870095 -0.03069213 0.15192044
-0.076912016 -0.032167435 0.16077024
0.078112662 -0.02778542 0.13886899
0.084667563 -0.029666096 0.14826882
0.090560853 -0.030586243 0.15286756
-0.08171013 -0.032958567 0.16634083
-0.078972667 -0.032418638 0.16361558
0.091055214 -0.03067565 0.15481907
0.091045678 -0.030451179 0.15368587
0.1021176 -0.033430636 0.16872305
-0.082446039 -0.032365799 0.16496772
0.09119904 -0.030533552 0.15562916
0.091120541 -0.030068666 0.15325934
-0.077701569 -0.031374633 0.16314948
-0.11478716 -0.040277123 0.21158236
-0.11270526 -0.040341347 0.21191943
-0.07762146 -0.030886829 0.16225314
-0.079704076 -0.030439556 0.16155404
-0.07924062 -0.030527115 0.16201848
-0.078469574 -0.030362725 0.1611461
-0.078093588 -0.030350506 0.16108102
-0.078964323 -0.029975712 0.16075104
-0.077925503 -0.030105323 0.16144621
-0.076043248 -0.035701931 0.19145888
-0.11899754 -0.039847136 0.21594024
-0.11526987 -0.0396761 0.21501338
-0.078268021 -0.029790491 0.16144085
-0.076671511 -0.035430908 0.19200742
0.098678768 -0.02588141 0.14025706
-0.07862395 -0.029224098 0.16005808
-0.078025401 -0.029385209 0.16094035
-0.077307791 -0.035348505 0.19360083
0.10271049 -0.025056481 0.13723272
-0.11446136 -0.038721979 0.21435982
-0.079186767 -0.028868616 0.15981311
0.1349113 -0.034744471 0.19234055
-0.11376786 -0.037810177 0.21391737
-0.11364207 -0.037920803 0.21454304
-0.1021733 -0.036135137 0.20444041
0.080013812 -0.034794092 0.19685304
0.10413104 -0.036773264 0.20805061
0.048995256 -0.026161134 0.14965737
0.048793256 -0.025552809 0.14617729
0.071722209 -0.032557249 0.18624729
0.077759326 -0.034910321 0.19970757
0.078530967 -0.033422023 0.191194
0.10428113 -0.035364032 0.20230323
-0.11710057 -0.037165374 0.2149995
-0.07113108 -0.028086483 0.16247863
0.052763462 -0.028042883 0.16222644
0.062673271 -0.031844974 0.18422109
0.073484957 -0.033735454 0.19515753
0.1033085 -0.036143184 0.20908576
0.10456234 -0.035211027 0.20369333
0.10791773 -0.036040843 0.20849365
-0.1185751 -0.037210047 0.2177068
-0.11799246 -0.037173152 0.21749049
-0.069973946 -0.024241686 0.14183176
0.053877532 -0.028312981 0.1656518
0.054690719 -0.027650058 0.16177356
0.06960088 -0.031064004 0.18174738
0.069092453 -0.030665874 0.17941827
0.095331132 -0.032835037 0.19210953
0.10304052 -0.034742177 0.20326769
0.054025352 -0.028067708 0.1661064
0.071102917 -0.029714912 0.17585486
0.089003623 -0.030973911 0.1833061
-0.07926172 -0.026951313 0.16135645
0.053451478 -0.027449936 0.16434181
0.067544878 -0.029962093 0.17938209
0.064917803 -0.028473556 0.17046994
0.068803251 -0.028423011 0.17016709
0.070686758 -0.028303385 0.169451
0.064657271 -0.024627328 0.14744258
-0.11798394 -0.035621285 0.21577471
-0.11752069 -0.03562063 0.21577102
-0.11599103 -0.035575807 0.21549934
-0.11570296 -0.035628945 0.21582121
-0.11313006 -0.035401225 0.21444172
-0.080514193 -0.02694124 0.16319615
0.060387135 -0.030450761 0.18445426
0.050204813 -0.024829894 0.15040612
0.075339615 -0.033798158 0.20473135
0.065919161 -0.028737515 0.17407656
0.067770004 -0.027670205 0.1676116
0.071215093 -0.025563419 0.15484959
-0.11555201 -0.035163343 0.21553963
-0.11432126 -0.035068452 0.21495783
-0.076821387 -0.025850803 0.15845698
0.063142598 -0.026899159 0.1648829
0.064460158 -0.026860774 0.16464764
0.06664288 -0.026889592 0.16482401
0.064894259 -0.02499482 0.15321016
0.070362031 -0.02519387 0.15442991
0.082899988 -0.027853936 0.1707353
0.08560735 -0.028512597 0.17477256
-0.11630553 -0.034831971 0.21608371
-0.077294469 -0.025364548 0.15735167
-0.076560616 -0.025233567 0.15653878
-0.075777054 -0.029485136 0.18291402
-0.066950798 -0.029732287 0.18444735
0.062604249 -0.023470193 0.14559942
-0.11833355 -0.034464449 0.21641403
-0.11833161 -0.034735441 0.21811563
-0.076045096 -0.02424711 0.15413767
-0.11551115 -0.033609211 0.21632582
-0.11741924 -0.033468902 0.21815294
-0.11618149 -0.033381164 0.21758133
-0.1144191 -0.033274412 0.21688515
-0.080047429 -0.025109828 0.1636681
-0.11715946 -0.033103079 0.21853805
-0.080107391 -0.024919152 0.16450959
-0.079214513 -0.024970144 0.16484666
0.10784131 -0.021888256 0.14450061
-0.11703765 -0.032514572 0.21744382
-0.081641942 -0.024744689 0.16548187
-0.080121934 -0.024603724 0.16453946
-0.079457641 -0.024615824 0.1646204
-0.11649054 -0.031941772 0.21642739
-0.081184953 -0.02439183 0.1652717
0.10950452 -0.021842927 0.1480009
-0.1157845 -0.031206012 0.21426481
-0.11719739 -0.032094568 0.22036588
-0.11542982 -0.030695051 0.21360844
-0.081798255 -0.023401171 0.16508359
0.10958487 -0.020419031 0.14810938
0.11011082 -0.020399213 0.14796543
-0.081285477 -0.022491634 0.16547638
-0.081374913 -0.022291243 0.16638231
0.063435495 -0.037966818 0.29628444
-0.081279457 -0.020326406 0.16618711
0.068208039 -0.039758861 0.32506555
0.15183544 -0.038143426 0.31689519
0.068814516 -0.038061649 0.32140791
0.11707985 -0.039754927 0.33570683
0.15489429 -0.038113266 0.32184374
-0.082402587 -0.019539148 0.16775042
0.073521614 -0.038834453 0.33340788
0.15347511 -0.037476808 0.32175255
0.15318412 -0.036909699 0.31688279
0.11387461 -0.039579988 0.34557694
0.11891246 -0.040032744 0.3495298
0.12486011 -0.040023506 0.34944898
0.1404379 -0.040206671 0.35104871
0.1414094 -0.040269643 0.35159844
0.14311141 -0.040325701 0.35208809
0.14683801 -0.04011032 0.35020733
0.14850676 -0.040156752 0.35061282
0.151227 -0.040282518 0.35171074
0.1524865 -0.040218174 0.3511489
0.15534377 -0.039987653 0.34913665
0.15718925 -0.039887846 0.34826547
0.11255813 -0.039747328 0.35303128
0.12446016 -0.039453954 0.35042578
0.14606214 -0.039830118 0.35376686
0.14778429 -0.039683402 0.35246426
0.15675485 -0.039665967 0.35230809
0.15688801 -0.039509833 0.35092163
0.15313751 -0.036145985 0.3210448
0.078727484 -0.036992043 0.33433223
0.11359775 -0.039687783 0.35869646
0.13689595 -0.039332956 0.35548979
0.13843524 -0.038911343 0.35167938
0.14358604 -0.039085776 0.35325587
0.14840984 -0.039163262 0.35395616
0.16193193 -0.038958311 0.35210377
0.15740532 -0.035711676 0.322761
0.16798079 -0.037944764 0.34294301
0.074119329 -0.038396925 0.35323733
0.075660586 -0.036937863 0.33981431
0.072088361 -0.033892423 0.31179798
0.075624824 -0.035229385 0.32409775
0.10995078 -0.038518429 0.35435516
0.11259472 -0.03890869 0.35794497
0.11570412 -0.038925201 0.3580972
0.12187189 -0.038696378 0.35599232
0.13639313 -0.038931906 0.35815972
0.13854307 -0.038890839 0.35778123
0.15323377 -0.038169086 0.35114139
0.15449637 -0.037744135 0.34723204
0.15060657 -0.034475356 0.31716019
0.076573908 -0.036023438 0.33743775
0.11734301 -0.038264185 0.35842764
0.12476504 -0.03819111 0.35774285
0.14003825 -0.03797853 0.35575157
0.13996291 -0.037753105 0.35364002
0.14018184 -0.037609071 0.35229069
0.16216022 -0.037817836 0.35424644
0.16586018 -0.036148965 0.33861369
0.087081254 -0.038411409 0.36648172
0.10756928 -0.039024174 0.37232733
0.1145615 -0.037409514 0.35692203
0.11533588 -0.03741318 0.3569575
0.11912352 -0.037645787 0.35917634
0.12968451 -0.037591755 0.35866028
0.13115871 -0.037574828 0.35849899
0.13381141 -0.037674457 0.35945016
0.13861161 -0.037517995 0.35795814
0.16186857 -0.037062258 0.35360932
0.1553964 -0.034610838 0.33021951
0.15675235 -0.03383702 0.32283694
0.18868071 -0.039851993 0.38022584
0.18813711 -0.039230317 0.37429392
0.074420989 -0.034716249 0.33748657
0.080117106 -0.034998804 0.34023333
0.11755198 -0.036936074 0.35906589
0.12492496 -0.037304401 0.3626464
0.12694538 -0.037214994 0.36177737
0.12847644 -0.037210524 0.36173397
0.13016421 -0.037030756 0.3599869
0.13168418 -0.036387801 0.3537358
0.13892621 -0.037317634 0.36277533
0.14655918 -0.036704749 0.3568179
0.14701402 -0.036067933 0.35062701
0.15672606 -0.03623426 0.35224336
0.15834785 -0.036089033 0.35083252
0.15794891 -0.033759952 0.32819068
0.13936794 -0.0359267 0.35598153
0.14502472 -0.035820365 0.35492903
0.15523267 -0.035380632 0.35057098
0.15774184 -0.035608798 0.35283142
0.15963131 -0.03519398 0.34872204
0.15809458 -0.033905327 0.33595324
0.15677726 -0.03302291 0.32720941
0.18834478 -0.038305134 0.37954879
0.070128977 -0.032099664 0.32430965
0.074580729 -0.033154249 0.33496422
0.078561127 -0.033946037 0.34296447
0.085580051 -0.03597194 0.36343294
0.086106658 -0.035867751 0.36237991
0.10838461 -0.037974417 0.38366431
0.11755192 -0.036009967 0.3638162
0.12647098 -0.034416586 0.34771752
0.14093196 -0.035055727 0.35417581
0.14210385 -0.034971595 0.35332525
0.14267999 -0.034744084 0.35102677
0.15587837 -0.032345295 0.32679087
0.18831247 -0.037081569 0.37464285
0.10293198 -0.013345599 0.13483328
0.10376161 -0.013415545 0.1355406
0.11995894 -0.035324425 0.36404133
0.1238426 -0.03510201 0.3617487
0.13608426 -0.034675062 0.35734862
0.14831728 -0.033807427 0.34840739
0.1499846 -0.0338476 0.34882128
0.15525472 -0.03369686 0.34726828
0.1608454 -0.03377983 0.34812325
0.19209665 -0.037242025 0.38380331
0.1049127 -0.013486266 0.13898432
0.10589653 -0.013460279 0.13871664
-0.080540091 -0.016008705 0.16835397
0.080166996 -0.033279002 0.34997535
0.085669577 -0.034911782 0.36714566
0.10480505 -0.034494758 0.36275965
0.12104172 -0.03470397 0.36496001
0.12666035 -0.033309639 0.35029662
0.14216489 -0.033258498 0.34975946
0.14516312 -0.033260375 0.34977871
0.15015912 -0.033207953 0.34922713
0.15526867 -0.033668488 0.35407031
0.15175784 -0.032747626 0.34438592
0.19197184 -0.036472112 0.38355392
0.10723966 -0.013357818 0.14047599
0.066062808 -0.029030323 0.31166697
0.10719675 -0.035614371 0.38235229
0.10542274 -0.034499019 0.37037748
0.11562407 -0.034472227 0.37009013
0.14150614 -0.032427549 0.34813887
0.14933741 -0.032350928 0.34731609
0.18785733 -0.03526172 0.37856662
0.19051915 -0.035608053 0.38228416
0.09949702 -0.012489706 0.13408786
0.10697782 -0.013089389 0.14052641
0.1074155 -0.013106108 0.14070636
0.10806477 -0.013039291 0.13998908
0.072857857 -0.030427575 0.33363163
0.078624666 -0.032205582 0.35312688
0.13989496 -0.032063603 0.35156977
0.17881501 -0.033439964 0.36666167
0.099641263 -0.01235342 0.13545281
0.099994838 -0.012361318 0.13553959
0.10504884 -0.012727976 0.13955986
-0.079760611 -0.01494804 0.1674729
0.0686239 -0.028608322 0.32051742
0.071098983 -0.029347241 0.32879549
0.12147784 -0.030528456 0.34202886
0.12290812 -0.030703068 0.34398586
0.12975907 -0.031291425 0.35057729
0.13494998 -0.031808496 0.35637015
0.18733829 -0.033989012 0.38080084
0.18479568 -0.03295508 0.36921626
-0.079424798 -0.014431328 0.16528434
0.072320879 -0.028635263 0.32796293
0.11235452 -0.032057703 0.36716038
0.11826956 -0.032388151 0.37094462
0.12696856 -0.031983107 0.36630601
0.13146538 -0.030834228 0.35314816
0.15608042 -0.032836944 0.37608469
0.15412265 -0.028211564 0.32311016
0.18949109 -0.033485264 0.38351077
0.10562861 -0.012183338 0.13953769
0.10905248 -0.012368679 0.14166081
0.067877054 -0.027899712 0.32681704
0.10966229 -0.031699806 0.37133044
0.11413044 -0.031400561 0.36782569
0.1402421 -0.029610127 0.34685296
0.14127749 -0.029672056 0.34757632
0.14219028 -0.029707372 0.347992
0.15932572 -0.028012455 0.32813692
0.18899912 -0.032796443 0.38417703
0.19034821 -0.032745987 0.38358617
0.10650206 -0.011943102 0.1399014
0.074343026 -0.028680861 0.34379739
0.10833782 -0.031282872 0.37498742
0.11123627 -0.03053838 0.36606294
0.11897463 -0.029545575 0.35416275
0.12531483 -0.029612839 0.35496849
0.12440544 -0.028873503 0.34610611
0.13669038 -0.030284017 0.36301512
0.13752329 -0.02962774 0.3551476
0.139799 -0.028844357 0.34575695
0.18966091 -0.032022566 0.38385433
0.068382323 -0.01134938 0.13604486
0.10384166 -0.011508793 0.13795608
0.10719806 -0.011681765 0.14002949
-0.07890752 -0.013621897 0.16718227
0.07647258 -0.028532863 0.35018426
0.083168685 -0.029041529 0.35642785
0.12184519 -0.04033044 0.49497646
0.10850012 -0.031059146 0.38118935
0.11904842 -0.028692275 0.3521418
0.12031275 -0.028814942 0.35364598
0.12165409 -0.028954238 0.35535616
0.12583643 -0.029398948 0.36081475
0.1395604 -0.028124034 0.34516698
0.18918699 -0.031198084 0.38289511
0.10365433 -0.011481076 0.14090812
0.10409844 -0.01120472 0.13751626
0.10447425 -0.011213511 0.1376242
-0.08204037 -0.013399959 0.1684792
-0.081480443 -0.013486147 0.1695621
-0.1866762 -0.040193856 0.50535995
0.074216306 -0.027847856 0.35013312
0.074779749 -0.027779222 0.34926945
0.075487554 -0.027764976 0.34909052
0.11327964 -0.032136053 0.40404886
0.10976487 -0.030903399 0.38855022
0.11534661 -0.02916503 0.36669344
0.11740875 -0.029288322 0.36824477
0.1543597 -0.025854021 0.32506371
0.15963727 -0.026265055 0.33023214
-0.07771498 -0.012833834 0.16540456
-0.18015862 -0.040166289 0.51766878
0.075100958 -0.027216554 0.35076958
0.12025088 -0.027598888 0.35569865
0.13529629 -0.028038532 0.36136383
0.13734066 -0.026925117 0.34701455
0.16422486 -0.02635929 0.33972216
0.10282415 -0.010509759 0.13545042
0.10521287 -0.010634035 0.13705361
-0.080872923 -0.012845367 0.16980839
-0.079179019 -0.012690246 0.16775745
-0.1789034 -0.038649619 0.51092416
0.07366699 -0.026831418 0.35469466
0.073861301 -0.026628137 0.35200775
0.077955663 -0.025744081 0.34032124
0.090932786 -0.029212058 0.38616461
0.12534922 -0.038520038 0.50921112
0.12761265 -0.038546294 0.50955731
0.12134939 -0.027153164 0.35894811
0.13205117 -0.026988387 0.35676998
0.15254271 -0.024300456 0.32123739
0.18738049 -0.028812736 0.38088673
0.27919084 -0.038724065 0.51190811
0.27729559 -0.038311124 0.50644857
0.27860373 -0.037900031 0.50101477
0.12533003 -0.037524253 0.5091334
0.10657144 -0.027389407 0.37162268
0.10890532 -0.027178943 0.3687672
0.11377317 -0.027024716 0.36667424
0.11515212 -0.02698046 0.36607504
0.12206286 -0.026610762 0.36105841
0.1297493 -0.026604503 0.36097306
0.13103241 -0.026396722 0.35815382
0.13769323 -0.025099188 0.34054893
0.19131547 -0.02853775 0.3872031
0.27727717 -0.037178755 0.50444585
0.10141248 -0.0098459125 0.13359082
0.10371524 -0.0099021792 0.13435465
0.10471243 -0.0099698305 0.13527191
0.073082447 -0.024992943 0.34829563
0.12680274 -0.036963642 0.51511592
0.12914997 -0.037005246 0.51569587
0.13252562 -0.025842279 0.36013138
0.13829732 -0.024415225 0.34024435
0.15029013 -0.02271086 0.31649369
0.19431883 -0.028221041 0.39328152
0.2746138 -0.038873434 0.54172999
0.27767003 -0.037563831 0.52348024
0.27397549 -0.036915332 0.51444215
0.28123158 -0.036572069 0.50965816
0.28166384 -0.036486924 0.50847214
0.10705841 -0.0098427534 0.13716632
-0.079678178 -0.011732459 0.16805398
-0.24685478 -0.03770873 0.54013556
-0.23008901 -0.035479546 0.50820428
-0.23430979 -0.037183583 0.5326131
-0.14543867 -0.039644957 0.56786877
0.076330781 -0.023482859 0.33636624
0.12808496 -0.036967635 0.52952021
0.12934774 -0.03605774 0.51648563
0.13425654 -0.023810893 0.34106386
0.13917917 -0.023780048 0.34062278
0.15173227 -0.022108495 0.31667989
0.15395945 -0.022333473 0.31990129
0.27741939 -0.035791993 0.51267856
0.28359157 -0.035603881 0.50998431
0.10121518 -0.0092045963 0.13184607
0.10429925 -0.0094065666 0.13473815
-0.079526901 -0.011435568 0.16849452
-0.18482006 -0.034557194 0.50917369
0.076463938 -0.023533642 0.34675103
0.13259751 -0.028225631 0.41588342
0.13102293 -0.024593234 0.36236185
0.28174275 -0.036195129 0.53330725
0.2807669 -0.035214961 0.51886469
0.28071672 -0.034796327 0.5126968
0.10076326 -0.009059608 0.13348728
0.10771435 -0.0093663335 0.13800669
-0.18571872 -0.033337831 0.50569385
-0.18107417 -0.033278823 0.50479847
-0.17545223 -0.033235699 0.50414532
-0.15104195 -0.038879037 0.58974677
-0.145679 -0.039131373 0.59357506
0.07035321 -0.022103846 0.33528876
0.075007796 -0.022867441 0.34687167
0.075961709 -0.022931576 0.34784502
0.076119781 -0.022113591 0.3354364
0.12728506 -0.024060458 0.3649686
0.13251519 -0.023602635 0.35802364
0.13783276 -0.023727685 0.35992002
0.13676852 -0.022182584 0.33648318
0.28201979 -0.033693284 0.51108652
0.28728837 -0.033928543 0.5146541
0.34478837 -0.040105045 0.6083439
0.35917038 -0.040259659 0.61068946
0.35637075 -0.039373517 0.59724742
0.1081509 -0.0091349483 0.13856602
-0.24424633 -0.035180181 0.54985696
-0.18482494 -0.032198846 0.5032602
-0.18401521 -0.032627463 0.50995892
-0.18329054 -0.032692611 0.51097721
-0.18201804 -0.032660246 0.5104714
-0.18065506 -0.032808959 0.5127967
-0.12770873 -0.036123931 0.5646072
0.12607282 -0.025996208 0.40631419
0.12620491 -0.024346292 0.38052762
0.12736708 -0.023509979 0.36745572
0.13675404 -0.022975862 0.35910755
0.13646519 -0.022547692 0.35241514
0.13523936 -0.021744996 0.33986968
0.13504821 -0.021598309 0.33757603
0.17086422 -0.026206285 0.40959769
0.17632222 -0.026367903 0.41212362
0.17527151 -0.025697231 0.40164179
0.16626644 -0.022005737 0.34394544
0.19323617 -0.025351137 0.39623243
0.29151565 -0.035304844 0.55180639
0.29517335 -0.035603881 0.55647844
0.27934557 -0.03289935 0.51420718
0.2799204 -0.032709539 0.51124245
0.28136015 -0.032623142 0.50989121
0.34043115 -0.038575888 0.60292965
0.35065466 -0.039288133 0.61406285
0.35509926 -0.039637715 0.6195274
0.35830724 -0.039120525 0.61144382
0.36047572 -0.039214343 0.6129089
-0.080759466 -0.010425866 0.16806179
-0.080656171 -0.010459095 0.16859657
-0.24174064 -0.034255624 0.55218703
-0.15696728 -0.037706256 0.60781008
-0.11835864 -0.038243771 0.61647445
-0.11647099 -0.038934112 0.62760299
0.10949051 -0.023510337 0.37897724
0.12932408 -0.025504887 0.41112852
0.12817603 -0.022940278 0.36978942
0.1295715 -0.022631913 0.3648172
0.13831955 -0.02179867 0.3513853
0.17030686 -0.025327027 0.4082616
0.15670931 -0.020380944 0.32853299
0.15649968 -0.020262867 0.32662994
0.2965045 -0.034538448 0.55674475
0.29003239 -0.033649385 0.5424152
0.27965432 -0.031318665 0.50484449
0.35101908 -0.03785044 0.61013371
0.44888246 -0.03946051 0.63608736
0.10897022 -0.0087088943 0.14038461
-0.18694991 -0.030768663 0.51202613
-0.18278235 -0.030620486 0.50956041
-0.14659926 -0.0352799 0.58709902
0.078150928 -0.020694911 0.34438735
0.12954354 -0.024747431 0.41182637
0.12800694 -0.021921694 0.36480266
0.138901 -0.020643681 0.34353596
0.17412442 -0.024334967 0.40496355
0.28001577 -0.03211081 0.53436202
0.29651052 -0.033456564 0.55675596
0.27930361 -0.031017035 0.51616079
0.27955407 -0.030681312 0.51057345
0.27962714 -0.030451655 0.50675064
0.1033408 -0.0082266331 0.13690197
-0.18446028 -0.029549539 0.50818235
-0.18235475 -0.029560417 0.50836831
-0.15581834 -0.033162713 0.57032043
-0.14508837 -0.03407824 0.58606488
-0.11967689 -0.035074353 0.60319537
0.074430764 -0.020014584 0.344203
0.07551527 -0.020107478 0.3458007
0.080322325 -0.020201087 0.34741163
0.1388998 -0.030432194 0.52336079
0.13592488 -0.024624407 0.42348063
0.13564426 -0.023935914 0.41164178
0.1299938 -0.021029204 0.36165327
0.13683939 -0.020662338 0.35534286
0.13877904 -0.020611972 0.35447741
0.17664754 -0.023085564 0.39701718
0.16051859 -0.019393921 0.33353001
0.34763473 -0.035135776 0.60425097
0.34817612 -0.034930885 0.60072857
0.45046782 -0.0373438 0.64222389
0.44746929 -0.036759168 0.63217002
0.11415935 -0.0092661381 0.15935576
-0.082344443 -0.0096309483 0.17136008
-0.24057373 -0.030148894 0.53642684
-0.15970564 -0.032100081 0.57114428
-0.15582204 -0.032054633 0.57033378
0.070833445 -0.018972903 0.33757746
0.13397467 -0.020111442 0.3578341
0.13534814 -0.020088285 0.3574217
0.14282471 -0.018485188 0.32889956
0.15623361 -0.018575013 0.33049744
0.28143287 -0.02855432 0.50805503
0.34003884 -0.033719927 0.59996372
0.46269006 -0.039225906 0.69792992
0.44870287 -0.036063612 0.64166313
0.44762856 -0.035542667 0.63239509
0.11048681 -0.0079779029 0.14194769
-0.23002365 -0.027697533 0.51046973
-0.1846227 -0.027597666 0.50862986
-0.18100029 -0.027378678 0.50459248
-0.18034703 -0.027443349 0.50578505
-0.16781473 -0.030909419 0.56966406
-0.16658384 -0.031837702 0.58677202
0.12582904 -0.020991266 0.3868739
0.14154202 -0.019616455 0.36153477
0.17097455 -0.020950586 0.38612169
0.28468287 -0.028322071 0.5219782
0.10666674 -0.0075601935 0.13933539
0.11003822 -0.0077343583 0.14254564
-0.081890225 -0.0088365376 0.16891223
-0.087091386 -0.00960958 0.18368965
-0.17984062 -0.026544809 0.50740641
-0.17084205 -0.030561179 0.58417922
-0.17064869 -0.030979306 0.59217364
-0.15889728 -0.029956996 0.57263023
-0.153202 -0.029801428 0.56965703
0.13347834 -0.026962161 0.51538521
0.1266467 -0.018997401 0.3631382
0.13079214 -0.019036025 0.36387455
0.14261746 -0.0189538 0.36230379
0.14872307 -0.018094897 0.34588724
0.15025026 -0.018012166 0.34430468
0.15494019 -0.018394262 0.35160768
0.15640718 -0.017001539 0.32498729
0.34345251 -0.031230867 0.59698159
0.34085649 -0.030880123 0.5902763
0.33840007 -0.029775858 0.56916887
0.44217211 -0.032779127 0.62657851
0.10419297 -0.0071601868 0.13686824
-0.17961204 -0.030272096 0.60099024
-0.15555182 -0.028678089 0.56934506
-0.13518763 -0.02798903 0.55566698
0.10611624 -0.022906959 0.45477176
0.14694804 -0.026401013 0.52413863
0.12884218 -0.022630423 0.44928217
0.10972518 -0.018851161 0.37425208
0.12655503 -0.018737465 0.37199444
0.13046563 -0.018392026 0.36513728
0.13508433 -0.01807031 0.35874999
0.14156747 -0.018115014 0.35963637
0.15038395 -0.016862631 0.33477312
0.15562451 -0.016507685 0.32772726
0.15611398 -0.016266704 0.32294369
0.18051022 -0.018643945 0.37013769
0.28596002 -0.026724309 0.53055757
0.47355098 -0.035297394 0.70075721
0.47310823 -0.035153151 0.69789463
0.43903369 -0.031242251 0.62025231
-0.081435889 -0.0081343651 0.16797513
-0.23578763 -0.026469409 0.54659468
-0.17806828 -0.028853387 0.59582478
-0.16129538 -0.027933449 0.57682973
-0.13782853 -0.027434349 0.5665217
0.13735205 -0.024664521 0.50932544
0.13228166 -0.017407596 0.35946852
0.14602095 -0.016951144 0.350043
0.17203516 -0.018634468 0.38480228
0.16835439 -0.016865045 0.34826475
0.20147628 -0.019661456 0.40601122
0.28927046 -0.025887519 0.53457958
0.28919166 -0.025778621 0.53233153
0.29244584 -0.025565743 0.52793616
0.33174163 -0.027615875 0.57027024
0.34301609 -0.028039366 0.57901412
0.45889527 -0.033413023 0.68998128
0.46615475 -0.033510745 0.69200104
0.44623941 -0.030164957 0.62290877
-0.23199853 -0.024160385 0.51978332
-0.21324211 -0.024301767 0.52282554
-0.20276052 -0.023857355 0.51326483
-0.18810904 -0.027487308 0.59135872
-0.17476213 -0.027180701 0.58476228
-0.15790421 -0.026450455 0.56905156
0.076346993 -0.016250402 0.34960926
0.10033721 -0.020360291 0.43802977
0.11831874 -0.020722151 0.44581336
0.12407559 -0.021385908 0.46009415
0.12769723 -0.017019242 0.3661502
0.13230759 -0.016809523 0.36163926
0.13363117 -0.016781658 0.36103874
0.13591355 -0.016777635 0.36095208
0.13626248 -0.016725808 0.35983622
0.13823324 -0.016501933 0.35502154
0.14249098 -0.016294748 0.35056174
0.14815831 -0.016258806 0.34979004
0.14903831 -0.016031802 0.34490597
0.17065716 -0.017914295 0.38540506
0.46176785 -0.032272249 0.69430059
0.46422476 -0.03234005 0.69575864
0.4508785 -0.029167771 0.62751228
-0.081192493 -0.0076963305 0.17280591
-0.2022571 -0.023178816 0.52043778
-0.19863147 -0.023275435 0.52260524
-0.17333606 -0.026206076 0.58840674
-0.17153466 -0.027114093 0.60879415
-0.062103152 -0.039420635 0.88511473
-0.016989946 -0.040105253 0.90048534
0.074739873 -0.015393615 0.34563279
0.1215027 -0.016422063 0.36872596
0.14183384 -0.015540987 0.34894502
0.17253232 -0.017353475 0.38963968
0.15321404 -0.01411584 0.31694466
0.19132346 -0.01724568 0.38721919
0.32850367 -0.026010454 0.58401567
0.34052831 -0.026658803 0.59856993
0.34662008 -0.026248038 0.5893504
0.44635707 -0.027585447 0.61937708
-0.080974191 -0.007209301 0.1692614
-0.23150885 -0.022972405 0.53934807
-0.22030646 -0.022534072 0.52905589
-0.20292148 -0.022362828 0.52503484
-0.2012096 -0.022422135 0.52642804
-0.17924917 -0.021803886 0.51191169
-0.18913722 -0.025156379 0.59062248
-0.17772439 -0.024121374 0.56632322
-0.17304495 -0.024486959 0.57490498
-0.16052085 -0.023550838 0.55292767
-0.12438959 -0.023423284 0.54993337
-0.13835353 -0.036846161 0.86507422
-0.13577485 -0.037669539 0.88440877
-0.13427842 -0.037780344 0.88701099
-0.048684031 -0.037563503 0.8819173
-0.037458122 -0.037647843 0.88389558
-0.015000761 -0.038189888 0.89662355
0.10190791 -0.018949032 0.44488662
0.12178957 -0.015742183 0.36959678
0.12892371 -0.015554518 0.36519098
0.13378537 -0.015219688 0.35732847
0.13987058 -0.015052646 0.35340685
0.13946885 -0.014928818 0.35049891
0.14147538 -0.014824986 0.34806305
0.17220533 -0.016564429 0.38890129
0.15554947 -0.014015198 0.32905036
0.1558069 -0.01385057 0.32518411
0.15657425 -0.013857007 0.32533431
0.18880516 -0.016205639 0.38047665
0.29372936 -0.022585064 0.53025335
0.34991032 -0.024977386 0.58642048
0.11510295 -0.0069894791 0.16410023
0.44335395 -0.026438922 0.62073284
-0.080531418 -0.006904304 0.16985363
-0.23125517 -0.022120059 0.5441764
-0.20363647 -0.021536261 0.52981478
-0.1916301 -0.023091495 0.568075
-0.18286693 -0.023526162 0.57876807
-0.17082712 -0.022432476 0.55186194
-0.16442615 -0.022854328 0.56224042
-0.16184828 -0.02300027 0.56583172
-0.15283576 -0.022738993 0.55940336
-0.1394349 -0.034971595 0.86033827
-0.13689232 -0.035748124 0.87944323
-0.12608939 -0.035354376 0.86975533
-0.11975801 -0.035683513 0.87785202
-0.061291337 -0.036624044 0.90099055
-0.057179779 -0.036458224 0.8969112
-0.04899627 -0.036078662 0.88757485
-0.030469835 -0.036612213 0.90070206
0.071266234 -0.013805836 0.33963972
0.12046945 -0.015056044 0.37039548
0.12190807 -0.015038222 0.36995625
0.13045955 -0.014841676 0.36512023
0.13219905 -0.014688075 0.36134267
0.13425314 -0.014492989 0.35654265
0.14202464 -0.014128894 0.34758675
0.14784175 -0.013637573 0.33549905
0.15579361 -0.014301687 0.35183781
0.15642256 -0.0135732 0.33391672
0.15781063 -0.01332885 0.32790327
0.18956691 -0.015595436 0.38366413
0.18427044 -0.015029669 0.36974591
0.29232806 -0.021873295 0.53810483
0.29147166 -0.021554679 0.53026968
0.29148257 -0.021472067 0.52823538
0.11532789 -0.0066834688 0.1644209
-0.08087641 -0.0066927075 0.17291981
-0.25403598 -0.021314383 0.55069751
-0.20907441 -0.020595551 0.53212672
-0.2061964 -0.020535499 0.53057438
-0.20508349 -0.020651877 0.53357953
-0.20042866 -0.020525455 0.53031617
-0.17649171 -0.019508421 0.50403649
-0.18018609 -0.02016294 0.52094704
-0.18763605 -0.022527784 0.58205026
-0.16926244 -0.022238612 0.57457834
-0.13621086 -0.021480739 0.55499679
-0.12314981 -0.021273673 0.54964596
-0.14107388 -0.033251643 0.85912079
-0.12454909 -0.03374958 0.87198621
-0.11633584 -0.034073412 0.88035136
-0.081543505 -0.032940328 0.85107726
-0.08022368 -0.033920646 0.87640339
-0.065583289 -0.034099996 0.88103884
-0.063980788 -0.0342502 0.8849197
-0.04286918 -0.035565168 0.91889364
0.10954475 -0.01664561 0.43007129
0.11889428 -0.014336854 0.37042099
0.12205219 -0.014335871 0.37039381
0.1310311 -0.014279038 0.36892688
0.13878202 -0.013720095 0.35448492
0.14038277 -0.013654709 0.3527956
0.1413396 -0.013529718 0.34956735
0.14447707 -0.013473958 0.34812582
0.16804969 -0.014548481 0.37588769
0.16585964 -0.01422292 0.36747539
0.15730995 -0.01299727 0.3358112
0.18900931 -0.015000433 0.38756514
0.18997711 -0.014753908 0.38119644
0.33595711 -0.021949112 0.56709868
0.34336299 -0.022352368 0.57751626
0.46629208 -0.026791304 0.69220489
-0.2471115 -0.02025491 0.55100459
-0.23470107 -0.019707322 0.536107
-0.2347737 -0.019810081 0.53890401
-0.22611228 -0.01965785 0.53476411
-0.2100352 -0.020200342 0.54951864
-0.18056789 -0.01872766 0.50945836
-0.174889 -0.019942611 0.54250866
-0.17027289 -0.020794958 0.56569535
-0.152695 -0.020706773 0.56329495
-0.1498709 -0.030748993 0.83647925
-0.14695844 -0.030888438 0.84027117
-0.12304547 -0.031667233 0.86145908
-0.09846437 -0.032056689 0.87205392
-0.076622695 -0.032277912 0.87806946
-0.034034729 -0.03283453 0.89321297
0.089587748 -0.014113516 0.3839373
0.08187598 -0.012666613 0.34457541
0.11013347 -0.015894413 0.43238258
0.1096372 -0.015691072 0.42685258
0.10765344 -0.013596863 0.36988217
0.12249237 -0.013664752 0.37172967
0.13807565 -0.013035744 0.35461682
0.16784269 -0.013734937 0.37363839
0.17117661 -0.013875693 0.37746799
0.15884662 -0.012187004 0.33152825
0.19476426 -0.014304489 0.38913316
0.28871161 -0.019233316 0.5232138
0.32858783 -0.02107355 0.57327396
0.33370358 -0.020933241 0.56945819
0.46712083 -0.02598542 0.70689219
-0.08017379 -0.0058087111 0.16684294
-0.1803042 -0.018037587 0.51808697
-0.18158531 -0.018277943 0.52499253
-0.17146564 -0.01864168 0.53543931
-0.17869413 -0.019690394 0.56556112
-0.15521902 -0.019779652 0.56812686
-0.1483888 -0.019520104 0.56067187
-0.13349006 -0.030273169 0.86952549
-0.0074918866 -0.031883776 0.9157849
0.062690616 -0.019205093 0.55162138
0.078987062 -0.011678398 0.33543456
0.10702199 -0.01475212 0.42372245
0.12030292 -0.015781641 0.45328957
0.12763208 -0.015495211 0.44506288
0.13095999 -0.012535691 0.36005932
0.13429797 -0.012488246 0.35869771
0.13675916 -0.012433231 0.35711652
0.1378271 -0.012392104 0.3559323
0.15769905 -0.011510342 0.33060789
0.33894223 -0.020435482 0.58696133
0.46852344 -0.024447709 0.70220119
-0.24546462 -0.018077672 0.54995352
-0.18250987 -0.016825229 0.51185089
-0.1763801 -0.018601716 0.56589347
-0.16569638 -0.019041836 0.57928485
-0.074137807 -0.028628528 0.87092465
-0.063391447 -0.027993083 0.85159296
0.065023899 -0.018125594 0.55141121
0.10860997 -0.012357235 0.37592947
0.11732405 -0.012260318 0.37297976
0.11820608 -0.012105793 0.36827683
0.1332013 -0.011829674 0.35987747
0.13462842 -0.011752754 0.357539
0.14142543 -0.011497736 0.34977943
0.34558541 -0.020195663 0.61438388
0.46745068 -0.023177862 0.70511085
0.46912688 -0.023186266 0.70536512
-0.078598022 -0.0051039457 0.16503179
-0.089093745 -0.0058644414 0.18962258
-0.24156165 -0.016899824 0.54644233
-0.23673105 -0.016642332 0.53811675
-0.23196203 -0.016713023 0.5404039
-0.22873354 -0.016815364 0.54371196
-0.18199915 -0.015785694 0.51041859
-0.15938187 -0.017494261 0.56566244
-0.14115381 -0.026243597 0.84856266
-0.089021802 -0.026932776 0.87085015
-0.049363524 -0.026624888 0.86089343
0.061415255 -0.017366171 0.56151944
0.074599922 -0.01066938 0.34498549
0.12106282 -0.01121673 0.36268616
0.12207204 -0.011238277 0.36338305
0.12686867 -0.01111418 0.35936987
0.13383949 -0.011119097 0.35952544
0.13962477 -0.011029691 0.35663748
0.14216495 -0.010816991 0.34975964
0.27863461 -0.015738577 0.50889415
0.46879238 -0.021799266 0.7048623
0.48103529 -0.021945447 0.70958799
-0.089064479 -0.0054939389 0.18956029
-0.2168979 -0.015575886 0.53742117
-0.19934452 -0.015115857 0.52154857
-0.18058616 -0.015038967 0.51889735
-0.15809929 -0.0166412 0.57417732
-0.15278649 -0.016465425 0.56811196
-0.13055092 -0.016118824 0.55615169
-0.12571102 -0.015957057 0.55057293
-0.11529392 -0.023049593 0.79528934
-0.11196509 -0.025808752 0.89048511
-0.099248171 -0.025002271 0.86266571
-0.095643461 -0.025024116 0.86341411
-0.094619453 -0.025243282 0.87097627
-0.066465855 -0.02515617 0.86797339
-0.064151466 -0.024977416 0.86180502
-0.053753942 -0.025285244 0.87242347
-0.03167063 -0.025521159 0.88056105
0.067323804 -0.0162521 0.56075126
0.066029072 -0.0093099475 0.32122493
0.10221267 -0.01182887 0.40813512
0.11707693 -0.010714352 0.36968213
0.12550569 -0.01055935 0.36433202
0.12597972 -0.01053381 0.36345315
0.12919247 -0.010294616 0.35519993
0.1369397 -0.010422021 0.35959488
0.13819486 -0.010343432 0.35688192
0.13910609 -0.010354459 0.35726321
0.14037716 -0.010279804 0.35468674
0.14255852 -0.010111868 0.3488934
0.1517235 -0.0093870163 0.32388568
0.28178757 -0.014974415 0.51666957
0.44461632 -0.018205315 0.62813932
-0.088500053 -0.0051161647 0.18921971
-0.22602975 -0.014453918 0.53456873
-0.22143212 -0.014834762 0.54865581
-0.20979589 -0.014437497 0.53396302
-0.19973364 -0.014208794 0.52550513
-0.19719544 -0.014187783 0.5247286
-0.17323032 -0.013215184 0.488756
-0.18133712 -0.014088482 0.52105528
-0.17870361 -0.01396966 0.51666099
-0.1689235 -0.014755249 0.54571229
-0.16879547 -0.014950395 0.55293447
-0.17049915 -0.015207827 0.56245321
-0.1691913 -0.01519829 0.56210214
-0.16612059 -0.015137523 0.55985099
-0.15662065 -0.015379548 0.56880707
-0.15295565 -0.023082525 0.85369617
-0.077851593 -0.023545682 0.87082285
-0.055602759 -0.02358228 0.87217504
-0.037250519 -0.025029033 0.92568403
0.068116248 -0.008959949 0.33137894
0.10270905 -0.01099506 0.40664679
0.12040633 -0.0099442303 0.3677845
0.14190656 -0.0094397068 0.3491239
0.28223276 -0.013883173 0.51346141
0.47265047 -0.019031674 0.70387727
-0.23970237 -0.013606906 0.54223639
-0.24066257 -0.013862491 0.55242139
-0.2106849 -0.013383269 0.53332442
-0.17913198 -0.012916356 0.51471883
-0.1810604 -0.013300449 0.5300253
-0.16902056 -0.013991833 0.55757552
-0.16213992 -0.014119148 0.56264681
-0.12747437 -0.014009953 0.55829543
-0.1299746 -0.014419675 0.5746246
-0.087602258 -0.021963924 0.87526339
-0.06769374 -0.021580905 0.86000329
0.14409876 -0.0087129474 0.34721416
0.14441365 -0.0086872578 0.34618998
0.15654373 -0.0081987381 0.32672191
0.28404164 -0.013018042 0.51876944
0.33238298 -0.015057147 0.60003239
0.45361286 -0.017337948 0.69092029
0.46894449 -0.017468959 0.69614238
-0.077792883 -0.0037643313 0.16261154
-0.17806768 -0.011918008 0.51482254
-0.16835868 -0.011931717 0.51541692
-0.17672902 -0.012775719 0.55187529
0.079633832 -0.0085251927 0.36826468
0.079476476 -0.0080319643 0.34696054
0.098576844 -0.0091121197 0.39361721
0.1131354 -0.010029852 0.43326157
0.11778051 -0.0084947348 0.36695081
0.13904053 -0.0088495612 0.38227594
0.13849932 -0.0083258748 0.35965347
0.14416319 -0.008041501 0.34736949
0.28580123 -0.012275487 0.53026313
0.2857604 -0.01217705 0.52601546
0.46140784 -0.015856564 0.68495411
-0.078863531 -0.0034800768 0.16411626
-0.078750491 -0.0035541654 0.16760856
-0.24345809 -0.011566609 0.5454579
-0.2421326 -0.01155901 0.54509836
-0.18425053 -0.010827661 0.51061112
-0.17687422 -0.010646433 0.50206465
-0.17975053 -0.011444539 0.53969783
-0.16295117 -0.011815518 0.55719715
-0.15550596 -0.011792809 0.55612534
-0.15840423 -0.012199163 0.57528466
-0.069021285 -0.019113362 0.90134305
-0.048165917 -0.019247591 0.90767676
0.061980009 -0.012016773 0.56668335
0.073949218 -0.012192905 0.57499105
0.12092096 -0.0078838468 0.37178344
0.12265795 -0.0077922344 0.3674649
0.12622732 -0.0077223778 0.36416745
0.12787139 -0.0077749491 0.36664963
0.13942641 -0.0075109601 0.35419726
0.1546008 -0.0069038272 0.32557142
0.15674376 -0.0068757534 0.32424659
0.28557664 -0.011060178 0.52157289
0.2838769 -0.01090911 0.51445204
0.46478111 -0.01486674 0.7010842
-0.078778267 -0.0031859279 0.16541016
-0.078206569 -0.0031914711 0.1656971
-0.078997254 -0.0032383204 0.16813374
-0.24002844 -0.010509133 0.54561192
-0.23570275 -0.01079151 0.56027812
-0.18676782 -0.0099105537 0.51453942
-0.16788328 -0.010742903 0.55775648
-0.15994853 -0.016794145 0.87192291
-0.072896242 -0.016493976 0.85633951
-0.067625582 -0.017498195 0.9084745
0.072566926 -0.0065940619 0.34235162
0.078967512 -0.0066399574 0.34473872
0.11977136 -0.0087628365 0.45495063
0.10745782 -0.0073266029 0.38038361
0.1148892 -0.0072314739 0.37544358
0.11555588 -0.0071731806 0.37241966
0.14233118 -0.0074497461 0.38677752
0.15803838 -0.006439209 0.33431536
0.15798944 -0.0064083338 0.33270752
0.28556114 -0.010124594 0.52564853
0.28619212 -0.010067701 0.52269715
0.28643405 -0.0099981725 0.51908642
0.44387203 -0.013193905 0.68500358
0.47107095 -0.013686359 0.71057183
-0.23240334 -0.0095663965 0.55243522
-0.16905904 -0.0090214908 0.52096969
-0.15598834 -0.0096601844 0.55785018
-0.15930071 -0.010096878 0.58306628
-0.1568577 -0.014981627 0.86515456
-0.14900064 -0.014752924 0.8519488
-0.056845725 -0.014939904 0.86274689
-0.055402875 -0.015570939 0.89918453
-0.053306848 -0.015520275 0.89625722
-0.041002452 -0.015950084 0.92107505
0.05540055 -0.0091280937 0.52712935
0.058837473 -0.0093155503 0.53795093
0.1060347 -0.0070898533 0.40941983
0.14132679 -0.0061174035 0.35327047
0.15908617 -0.0058013797 0.33501714
0.28536218 -0.0089552701 0.51714379
0.4508248 -0.012008309 0.69344622
0.4575339 -0.012107342 0.69916886
-0.078951389 -0.0025369525 0.16503316
-0.19021243 -0.0080555677 0.52402931
-0.16505516 -0.00861305 0.5602966
-0.16379529 -0.0086731911 0.56420678
-0.15859705 -0.0089235008 0.58049089
-0.14864072 -0.0096461475 0.62750179
-0.13970205 -0.013250798 0.86198634
-0.074337423 -0.013770074 0.89576119
-0.04960984 -0.013814986 0.89869112
-0.045780212 -0.013818622 0.89892489
-0.044796675 -0.014114082 0.91814309
0.051377773 -0.0080031753 0.52061564
0.080013335 -0.0053696632 0.34930456
0.079922497 -0.0053139925 0.34568214
0.10613239 -0.0062479973 0.40644282
0.15524298 -0.008849442 0.57566816
0.12412184 -0.0069110394 0.44957596
0.120588 -0.0065125823 0.423657
0.11604232 -0.0057491064 0.37398738
0.12382758 -0.0056663752 0.36860877
0.12759966 -0.0057296753 0.37272322
0.12765414 -0.0054920316 0.35726857
0.14039832 -0.0054239035 0.35283464
0.18864614 -0.0059725642 0.38852328
0.45638925 -0.01079154 0.70200521
0.4813692 -0.010614425 0.69048768
-0.083205044 -0.0023997426 0.17871535
-0.23893979 -0.0073289871 0.54578906
-0.23787704 -0.007404685 0.55143839
-0.23005146 -0.0072691441 0.54134399
-0.22167808 -0.0071119666 0.52963132
-0.22294128 -0.0073398352 0.546606
-0.19856918 -0.0070952177 0.52838403
-0.16797423 -0.007440865 0.55412394
-0.16866001 -0.0075242519 0.56033677
-0.17069343 -0.0077246428 0.57526237
-0.16031796 -0.0075262189 0.56048149
-0.15651911 -0.0075742006 0.56406027
-0.15954459 -0.0077805519 0.57942623
-0.16335222 -0.0084240437 0.62734181
-0.15207517 -0.011397541 0.84878188
-0.14839417 -0.011393398 0.84848088
-0.044491142 -0.012244791 0.91188103
0.069062591 -0.0074587464 0.55545706
0.095077753 -0.0072693229 0.54134923
0.11156809 -0.0050004721 0.37239355
0.12654662 -0.0048133135 0.35845751
0.12866479 -0.0048353076 0.36009729
0.14051646 -0.0047417879 0.35313159
0.14151061 -0.0047246814 0.35185021
0.15787256 -0.0044643283 0.33246148
0.16096079 -0.0045109987 0.33594072
0.17106944 -0.0047730207 0.35545284
0.28207541 -0.0070837736 0.52753407
0.2809853 -0.0069727898 0.51926845
-0.22931644 -0.0061968565 0.53961426
-0.2026526 -0.0061575174 0.53620046
-0.17969191 -0.0059659481 0.51951832
-0.1762459 -0.00623703 0.54311675
-0.15491724 -0.0074431896 0.6481505
0.057437658 -0.0061509609 0.53561956
0.071214139 -0.0064662695 0.56308192
0.069448769 -0.0039622784 0.34503669
0.069548368 -0.0039262772 0.34190124
0.075971067 -0.0038810372 0.3379643
0.075744927 -0.0038331151 0.33378476
0.1259802 -0.0050827861 0.44260126
0.11684054 -0.0042947531 0.37398374
0.12333572 -0.004270494 0.37187672
0.12350583 -0.0042490959 0.37000525
0.13131195 -0.0041704178 0.36316127
0.13905782 -0.0043648481 0.38008982
0.14073515 -0.0043413639 0.37804884
0.13582885 -0.0041190386 0.3586911
0.13672268 -0.0041229129 0.35902506
0.14005214 -0.0040419102 0.35196465
0.14089125 -0.0040228367 0.35031027
0.19758493 -0.0045528412 0.39646196
0.27812308 -0.0059494972 0.51807159
0.48465019 -0.008210063 0.71492058
-0.2411961 -0.0052301288 0.54826635
-0.23852497 -0.0052229166 0.54751474
-0.21959636 -0.0051093102 0.53559786
-0.18492168 -0.0052294135 0.54818827
-0.17140687 -0.0053189993 0.55758494
-0.16776845 -0.0059985518 0.62881762
0.072265685 -0.0045964122 0.48182589
0.069704235 -0.0032014847 0.33561444
0.084081352 -0.003315866 0.3476032
0.10899276 -0.0040146112 0.42084169
0.11982685 -0.0035613179 0.37332636
0.12286842 -0.0035340786 0.37046766
0.12894982 -0.0034634471 0.36306685
0.13003343 -0.0034509897 0.36176378
0.14385521 -0.0036239028 0.37988687
0.1529035 -0.0031136274 0.32640463
0.19516128 -0.0037679672 0.39498669
0.4648568 -0.0068890452 0.72215229
0.45452124 -0.006604135 0.69230384
0.46875185 -0.0067235231 0.70480138
-0.079328626 -0.0012593269 0.16582167
-0.081598103 -0.0013130307 0.17288274
-0.081398517 -0.0013217926 0.17403609
-0.2367903 -0.0041690469 0.54891926
-0.23083299 -0.0041049123 0.54046458
-0.22818723 -0.004078269 0.53695709
-0.21626204 -0.0040483475 0.53302294
-0.21098748 -0.0041692257 0.54894036
-0.17873591 -0.0040758848 0.53665143
-0.17161945 -0.0041820407 0.55061954
-0.16300419 -0.004296124 0.56564623
-0.15192968 -0.0046610832 0.61369926
-0.1253323 -0.0041304827 0.5438233
-0.12490717 -0.0042749643 0.56285888
0.06009537 -0.004016161 0.52878529
0.074817657 -0.0043461919 0.57223326
0.075992405 -0.0043433905 0.57186991
0.076693952 -0.0042468905 0.55916137
0.076648772 -0.0036721826 0.48348993
0.082451642 -0.0037480593 0.49348122
0.070004642 -0.0026137233 0.34414393
0.073624492 -0.0026117563 0.34387362
0.11510146 -0.0028768778 0.37878269
0.12247592 -0.0027514696 0.36228019
0.12421811 -0.0027557611 0.3628456
0.1253522 -0.0027637482 0.36388665
0.12608951 -0.0027628541 0.36376989
0.13290519 -0.0027751923 0.36540735
0.14584184 -0.0029250383 0.38513297
0.15032977 -0.002751112 0.36222816
0.18882471 -0.002953589 0.38889104
0.19382441 -0.0030053854 0.39570433
0.46867818 -0.0052676201 0.69354647
-0.080833405 -0.0009765625 0.17282784
-0.24507061 -0.0031027198 0.54907054
-0.24190339 -0.0030921698 0.54721552
-0.22762963 -0.0030267835 0.53564507
-0.21305895 -0.0030642748 0.54226786
-0.21268106 -0.0031095743 0.55028659
-0.18698114 -0.0029454827 0.52126604
-0.18087751 -0.0029550791 0.52294594
-0.17668074 -0.0030366182 0.53737801
-0.17544919 -0.0030351281 0.53712398
-0.1654897 -0.0031067729 0.54980439
0.07600677 -0.0032321215 0.57197756
0.071705818 -0.0027406216 0.48500508
0.080393314 -0.0027540922 0.48739654
0.094734371 -0.0029066205 0.5143562
0.098250151 -0.0029797554 0.52732569
0.070188701 -0.0018901825 0.3345046
0.077031374 -0.0019003153 0.33628649
0.081710398 -0.0019258261 0.34081298
0.082406819 -0.0019082427 0.33769673
0.12204635 -0.00268507 0.47516531
0.12137419 -0.0020679235 0.36596245
0.13224846 -0.0020546317 0.36360192
0.1378625 -0.0020117164 0.35602355
0.14117384 -0.0020376444 0.36059421
0.14231902 -0.0020102262 0.35575074
0.15398151 -0.002107501 0.37294805
0.15516692 -0.0018548965 0.32824111
0.16406494 -0.0019523501 0.34550184
0.28044468 -0.0028830767 0.51020843
-0.083730519 -0.00065159798 0.17580843
-0.083305299 -0.00065124035 0.17570418
-0.08349663 -0.00065565109 0.17690521
-0.24185809 -0.0019989014 0.53929049
-0.24126026 -0.0020130873 0.54313463
-0.21628851 -0.001975894 0.53308803
-0.21437672 -0.0020005107 0.53974968
-0.21389797 -0.0020288825 0.54738098
-0.19086844 -0.0019375086 0.52275854
-0.17540866 -0.0019520521 0.52666122
-0.16680694 -0.0020394921 0.55027336
-0.16709918 -0.0020872355 0.56314939
-0.1437754 -0.0021904111 0.59096533
0.05946362 -0.0020151734 0.54367584
0.069037676 -0.0020580292 0.55525666
0.086899817 -0.0019277334 0.52010411
0.099604905 -0.0020279884 0.54714984
0.071074903 -0.0012554526 0.33872807
0.087125778 -0.0012573004 0.33920825
0.14742941 -0.0020589232 0.55549973
0.13326758 -0.0013344884 0.36005646
0.14580446 -0.0013436675 0.36252636
0.17981994 -0.0013848543 0.37363499
0.19222593 -0.0014609098 0.39416093
0.26859409 -0.0018398762 0.49636906
0.27531385 -0.001863718 0.50282925
0.28487647 -0.0019209385 0.51827103
0.43905383 -0.0026698112 0.7203359
-0.2351529 -0.00095582008 0.54243559
-0.23322919 -0.00095272064 0.54066378
-0.23219612 -0.00095319748 0.54094917
-0.2199029 -0.00094509125 0.53634578
-0.21249121 -0.00093775988 0.53213853
-0.19768623 -0.00092160702 0.52305979
-0.19398305 -0.0009200573 0.52211958
-0.18654734 -0.00092744827 0.52632898
-0.18478933 -0.00092995167 0.5277335
-0.18382299 -0.00093072653 0.52819794
-0.18130207 -0.00093519688 0.53073281
-0.1717841 -0.00094527006 0.53643388
-0.1688582 -0.00096786022 0.54929405
-0.16818389 -0.00097084045 0.55093104
-0.16652107 -0.00097483397 0.5532307
-0.16472012 -0.00097119808 0.55116147
-0.13769835 -0.0010336637 0.58660024
-0.13101467 -0.0010504127 0.59612221
0.051805317 -0.00096690655 0.54871613
0.059543192 -0.00097846985 0.55525428
0.12065876 -0.00064098835 0.36380535
0.12848383 -0.00064134598 0.36394495
0.12938911 -0.00063812733 0.36212432
0.13435227 -0.00061821938 0.35083145
0.14879256 -0.00061899424 0.3512876
0.44074005 -0.0012742281 0.72310239
0.47257489 -0.0012131929 0.68842584
0.11717707 -0.00029700994 0.16859841
-0.088346958 3.4749508e-05 0.19063479
-0.23665285 9.9003315e-05 0.54321748
-0.21006799 9.7453594e-05 0.53465551
-0.1926654 9.906292e-05 0.54359049
-0.17542872 9.4771385e-05 0.52004725
-0.17427638 9.5367432e-05 0.52326196
-0.16951856 9.7036362e-05 0.53291589
-0.15525994 0.00010514259 0.57730919
-0.15812838 0.00010883808 0.59747165
-0.12656781 0.00010001659 0.5491845
0.074612498 0.00010228157 0.56148547
0.093342185 0.00010049343 0.55160564
0.09536618 0.0001013875 0.55653697
0.097673833 9.894371e-05 0.5429166
0.070658505 6.0141087e-05 0.33002049
0.07979691 6.121397e-05 0.33582556
0.083678663 6.0379505e-05 0.33130127
0.15416169 0.00010502338 0.57622558
0.12693459 7.4028969e-05 0.40629297
0.12898368 7.4148178e-05 0.40727907
0.11970824 6.6161156e-05 0.36328053
0.1249072 6.6041946e-05 0.36259472
0.12998551 6.6280365e-05 0.36379355
0.13301164 6.28829e-05 0.34540296
0.13730979 6.4313412e-05 0.35264963
0.2692762 9.1791153e-05 0.50359708
0.11725432 3.0696392e-05 0.16819239
-0.24102318 0.0011594296 0.54522425
-0.23330075 0.0011557937 0.54352254
-0.22262844 0.0011311173 0.53190213
-0.19739598 0.0010982752 0.51645046
-0.19478568 0.0010898113 0.51248699
-0.19430959 0.0011121631 0.52299839
-0.17394084 0.0011249781 0.52904445
-0.17418063 0.0011339784 0.53324038
-0.16777718 0.0011292696 0.5310095
-0.15107274 0.001157701 0.54443222
-0.14431185 0.0012503862 0.58800429
0.080152214 0.0011049509 0.51959997
0.075986564 0.00071883202 0.3380335
0.081258595 0.00071442127 0.33593333
0.15197265 0.0012080073 0.56804341
0.15049368 0.0011773705 0.55366904
0.12682503 0.00088131428 0.41444838
0.12730992 0.00086069107 0.40472537
0.12975866 0.0008713603 0.40972596
0.1345095 0.00075960159 0.35722333
0.43747324 0.0015209913 0.71523458
0.11759466 0.00035762787 0.16816497
-0.083572298 0.00072413683 0.17787105
-0.23731685 0.0022175908 0.54474157
-0.22103274 0.0021719933 0.53353864
-0.17425913 0.0021575689 0.53001255
-0.16930753 0.0021813512 0.53585297
-0.15003473 0.0024671555 0.60604483
0.061710238 0.0021697283 0.53297144
0.065395892 0.002141118 0.52596647
0.072888076 0.0020364523 0.50023311
0.092122257 0.0021096468 0.518215
0.091661572 0.0020259619 0.4976725
0.095261633 0.0020577908 0.50548691
0.10225135 0.0020462871 0.50266939
0.072863758 0.0013854504 0.34032041
0.080273867 0.0014004707 0.34402174
0.13839102 0.002040565 0.50125962
0.12621343 0.0016559362 0.40676725
0.12258691 0.001476109 0.36260861
0.18197167 0.0015256405 0.37477702
0.44901949 0.0029270649 0.7190364
0.46123248 0.0028141141 0.69127399
0.46400994 0.0028220415 0.69321603
0.46645433 0.0027923584 0.68591672
0.11765838 0.00068497658 0.16825616
-0.2230899 0.0032225251 0.53574032
-0.19682696 0.0031504631 0.5237481
-0.1917727 0.0031228065 0.51915675
-0.18520463 0.0030872822 0.51325518
-0.18494636 0.0031387806 0.52181178
-0.16508216 0.0030007362 0.4988578
-0.17364293 0.00319767 0.53159457
-0.16580385 0.0032900572 0.54696411
-0.15466136 0.0031811595 0.52885062
-0.15611163 0.0033582449 0.55829126
-0.17008483 0.0037446022 0.62253791
-0.14962786 0.0038342476 0.63742024
0.052284896 0.0034891963 0.58005935
0.056358337 0.0032925606 0.54737395
0.056995869 0.003262043 0.54230863
0.062970042 0.0032120347 0.53399402
0.065332115 0.0031607151 0.52545327
0.073211253 0.0029786825 0.49518734
0.069414735 0.0020104051 0.33422059
0.080494046 0.0021137595 0.35140294
0.1270023 0.0021905303 0.36415774
0.2716518 0.0030805469 0.51213425
0.44449294 0.0043259859 0.71917218
-0.23983303 0.0043392777 0.54516786
