# .PCD v0.7 - Point Cloud Data file format
VERSION 0.7
FIELDS x y z
SIZE 4 4 4
TYPE F F F
COUNT 1 1 1
WIDTH 1308
HEIGHT 1
VIEWPOINT 0 0 0 1 0 0 0
POINTS 1308
DATA ascii
0.042795882 -0.020692497 0.055747271
0.042891346 -0.020681083 0.055716515
-0.08119636 -0.07019639 0.19011039
-0.083066903 -0.094517171 0.25597769
-0.084155463 -0.097034007 0.26279384
-0.003490828 -0.1249193 0.33831471
0.005795151 -0.12250367 0.33177263
0.0095519722 -0.12527406 0.33927554
0.010959484 -0.12478703 0.33795661
0.012357973 -0.12432265 0.33669871
0.029324763 -0.12304443 0.33323699
0.10724691 -0.12017432 0.32546407
0.041716501 -0.022579551 0.061151564
0.043019429 -0.020577058 0.055728137
-0.03506764 -0.022928506 0.062425256
-0.034788482 -0.0230975 0.062885404
-0.08267457 -0.070743918 0.19260758
-0.080524348 -0.069597095 0.18948525
-0.088113986 -0.09594056 0.26120812
-0.082740836 -0.095538199 0.26011246
-0.083720438 -0.098657966 0.26860648
-0.08018937 -0.099261642 0.27025002
-0.0027774796 -0.12469876 0.33950537
0.0065153167 -0.12206542 0.33233565
0.032435618 -0.1233927 0.33594948
0.1057749 -0.1194503 0.32521564
0.10933769 -0.1210866 0.32967061
0.1522837 -0.1001997 0.2728042
0.042358898 -0.020552754 0.055957139
0.042930592 -0.020483136 0.055767477
-0.035152785 -0.02243568 0.061408579
-0.03509564 -0.022483185 0.061538517
-0.035038553 -0.022531033 0.061669648
-0.083347268 -0.070941955 0.19417483
-0.08507546 -0.098374873 0.26926106
-0.080096416 -0.10307667 0.28213018
-0.0035365745 -0.12522355 0.34274822
0.017332472 -0.12256768 0.33547896
0.018705286 -0.12216768 0.33438414
0.1499413 -0.099662632 0.27278596
0.15914623 -0.099222004 0.2715798
0.048693683 -0.025835648 0.070714593
-0.034510069 -0.022670075 0.062382102
-0.071046405 -0.099154979 0.27284831
0.0086378381 -0.12065548 0.33201188
0.15179902 -0.099203229 0.27298111
0.15149198 -0.098247319 0.27035064
0.04271616 -0.020277649 0.055798769
0.042811163 -0.020266175 0.055767179
-0.034938999 -0.022061884 0.061035097
-0.033830307 -0.12762877 0.35308987
-0.003491722 -0.12231958 0.33840162
0.042277414 -0.020244613 0.056007564
0.042593934 -0.020167753 0.055794954
-0.034764506 -0.021833628 0.060730338
-0.034221239 -0.022069275 0.061385691
-0.034266733 -0.022183642 0.061703861
-0.073768876 -0.095576704 0.26584643
-0.07080888 -0.099397808 0.27647489
-0.071800195 -0.10337746 0.28754443
-0.070826553 -0.10285604 0.28609413
-0.0093800053 -0.12299952 0.34212309
0.034243625 -0.11957142 0.33258766
0.035133045 -0.11778679 0.32762402
0.041973263 -0.020104706 0.055921257
0.042124286 -0.020119756 0.055963159
-0.077268802 -0.097320974 0.27217025
-0.071443759 -0.10143971 0.28368872
-0.069888137 -0.10182342 0.28476197
-0.036273219 -0.12688148 0.35483974
-0.031503446 -0.12600443 0.35238701
-0.010074474 -0.12188932 0.34087867
-0.0049314275 -0.12083593 0.33793265
0.027566426 -0.12081525 0.33787495
0.030272596 -0.12009147 0.33585066
0.038152501 -0.11782455 0.32951099
0.038961172 -0.11814103 0.33039623
0.15884557 -0.099094987 0.27713162
0.04218436 -0.020039484 0.05604291
0.042462982 -0.020001441 0.055936635
-0.034220748 -0.021998897 0.061859071
0.020935602 -0.11940876 0.33576733
0.03211268 -0.11828408 0.33260459
0.034948278 -0.11825711 0.33252889
0.035805579 -0.11874318 0.3338955
0.037623897 -0.1177336 0.33105665
0.040727127 -0.11649024 0.3275606
0.15108109 -0.097748131 0.27485937
0.1527606 -0.098072052 0.27577025
0.15383738 -0.096894085 0.2724579
0.042753667 -0.019916743 0.056004167
-0.071814798 -0.09520179 0.26917094
-0.032163195 -0.12427318 0.35136646
0.017429441 -0.11931783 0.33735603
0.020066284 -0.117865 0.3332482
0.023794599 -0.11869803 0.33560342
0.030132733 -0.1182366 0.33429927
0.036939189 -0.11716247 0.33126181
0.1532667 -0.09748289 0.27562052
0.15546539 -0.097754121 0.27638739
0.15180537 -0.095091462 0.26885909
-0.076298617 -0.096715778 0.2749632
-0.071476616 -0.096553087 0.27450043
-0.07270702 -0.099854439 0.28388613
-0.031055428 -0.12218615 0.34737557
-0.023723371 -0.12266493 0.34873646
0.011606477 -0.1181064 0.33577687
0.018911511 -0.11891338 0.33807081
0.025222331 -0.11801332 0.33551198
0.027423851 -0.11822981 0.33612746
0.030699261 -0.11702251 0.33269519
0.03230571 -0.1176939 0.33460373
0.15496306 -0.097272307 0.27654511
0.040750749 -0.021414086 0.060880303
-0.082359962 -0.10147718 0.29010326
0.0023091212 -0.11912403 0.34055227
0.0044569448 -0.11817485 0.33783859
0.0066097975 -0.11793569 0.33715492
0.012314163 -0.11735842 0.33550471
0.022718631 -0.11927581 0.34098607
0.03626385 -0.11597878 0.33156079
0.037634868 -0.11583623 0.33115309
0.15259174 -0.096730143 0.27653235
0.041084275 -0.021401688 0.061183274
0.041693237 -0.021581531 0.061697304
0.04218889 -0.021632791 0.061844051
0.041880816 -0.019573718 0.055957496
0.042157292 -0.019591048 0.056006968
-0.033456706 -0.020483419 0.058885455
-0.073331855 -0.095609695 0.2748571
0.02032081 -0.1173915 0.33747488
0.034792226 -0.11515447 0.33104402
0.1544673 -0.096256286 0.27671582
0.041349567 -0.021352157 0.061382949
0.041979298 -0.01945512 0.055929303
-0.072692104 -0.095006913 0.27465945
-0.033331491 -0.12308139 0.35582119
-0.032259412 -0.1219041 0.35241765
0.00085673481 -0.1182636 0.34189314
0.0073143542 -0.11636925 0.33641678
0.012417831 -0.11703086 0.33832949
0.023779966 -0.11601657 0.33539718
0.029511891 -0.11325419 0.32741135
0.033622313 -0.11535195 0.33347577
0.037104689 -0.11509952 0.33274597
0.15464176 -0.096939862 0.28024751
0.041364476 -0.021240488 0.061405063
0.042341635 -0.021336079 0.06168139
-0.079067938 -0.098010063 0.28494316
-0.036165453 -0.12168938 0.35378546
-0.032431684 -0.12186614 0.3542996
-0.019846268 -0.1190514 0.34611624
0.010834254 -0.11491641 0.33409458
0.029581562 -0.11288342 0.32818407
0.031710632 -0.115529 0.33587581
0.15441138 -0.094065219 0.2734744
0.1565575 -0.095013022 0.2762298
-0.075656347 -0.095456839 0.27909774
-0.034291141 -0.1224086 0.35789973
-0.022623003 -0.11743182 0.34334856
-0.013798051 -0.11727318 0.34288448
0.011502512 -0.11381325 0.3327685
0.022287592 -0.11441115 0.33451658
0.023586132 -0.11377728 0.33266324
0.042997602 -0.019156516 0.056010008
-0.035166644 -0.021535009 0.063324332
-0.039935403 -0.12028095 0.35368937
-0.019266054 -0.1186884 0.34900671
-0.002071619 -0.11657155 0.34278172
0.0058414787 -0.11372933 0.3344242
0.042182125 -0.020962536 0.061640918
-0.034849323 -0.02066204 0.061106622
-0.08028736 -0.094909757 0.28068966
-0.078783043 -0.097502887 0.28835863
-0.03503003 -0.12092683 0.35763341
-0.034256808 -0.12089562 0.35754126
-0.029886805 -0.11871478 0.35109144
-0.022074282 -0.11707869 0.34625274
-0.018505134 -0.11791435 0.34872419
-0.017148487 -0.11884344 0.35147184
-0.0088197514 -0.1179693 0.34888679
0.0058570728 -0.11338103 0.33531743
0.006561473 -0.11316907 0.33469051
0.012881272 -0.11213872 0.33164328
0.021271087 -0.11535254 0.34114796
0.021769725 -0.11414379 0.33757311
0.043018125 -0.01894775 0.05603677
0.043187968 -0.018917218 0.055946529
-0.035411112 -0.021519616 0.064010859
-0.074496947 -0.094629318 0.28147894
-0.035712115 -0.11995503 0.35681123
-0.03337089 -0.11976364 0.35624176
-0.032043956 -0.1205003 0.35843295
-0.02154208 -0.11753955 0.349626
-0.018550016 -0.11752069 0.3495701
-0.0064902827 -0.11564466 0.34398991
-0.0027515963 -0.11307377 0.33634251
0.0044698343 -0.11390513 0.33881563
0.0079364106 -0.11173326 0.33235508
0.010027371 -0.1112881 0.33103114
0.012910411 -0.11174619 0.33239371
0.016373254 -0.11113963 0.33058947
0.030260645 -0.11286381 0.33571798
0.041627716 -0.020709217 0.061600387
-0.035253964 -0.020739272 0.062048733
-0.035654701 -0.021377087 0.063957036
-0.075370602 -0.092206895 0.27586859
-0.076443635 -0.095006049 0.28424329
-0.076062493 -0.096059233 0.28739423
-0.031978823 -0.11955982 0.35770434
-0.026547648 -0.11587608 0.34668332
-0.019967876 -0.11639544 0.34823698
-0.018573381 -0.11698818 0.35001034
-0.0072187185 -0.11486754 0.34366578
-0.0049553886 -0.11349976 0.33957356
0.00084232539 -0.11235407 0.33614594
0.0015694872 -0.11298132 0.33802265
0.0072929859 -0.11211631 0.33543473
0.028493427 -0.11374968 0.34032136
0.041803867 -0.01866895 0.055854619
-0.078068994 -0.090695351 0.27293402
-0.033343531 -0.11828122 0.3559497
-0.032328911 -0.11735976 0.35317665
-0.024547167 -0.11625564 0.34985393
-0.0063812062 -0.11238587 0.33820838
-0.0041758493 -0.11140537 0.33525783
0.00012328476 -0.11118573 0.33459705
0.0015741885 -0.11266118 0.33903676
0.010821365 -0.11088693 0.33369762
0.015140302 -0.11117747 0.33457166
0.031335957 -0.11029199 0.33190733
0.042193405 -0.020424828 0.061465442
-0.036064602 -0.11903724 0.36033303
-0.021505229 -0.11530247 0.34902793
-0.0072104111 -0.11340049 0.34327024
0.0008482933 -0.11183327 0.33852619
0.0060392469 -0.11421865 0.34574693
0.01528132 -0.11155641 0.33768815
0.041073896 -0.02027151 0.061363101
0.041829184 -0.020319819 0.06150943
0.042609122 -0.018542424 0.056129158
0.042926457 -0.018524051 0.056073487
-0.02993121 -0.11547288 0.35161299
-0.0034876093 -0.11100325 0.3380031
-0.0013179779 -0.11080593 0.3374024
0.0073768124 -0.11142582 0.33928984
0.042051367 -0.020180672 0.061449945
0.042242676 -0.018430442 0.056120455
0.042801887 -0.018412992 0.056067348
-0.063323162 -0.1064893 0.32618922
-0.034477212 -0.11747566 0.35984164
-0.022472911 -0.11508057 0.35250539
-0.0049439818 -0.11060369 0.33879215
0.0067390874 -0.11222219 0.3437497
0.0080826804 -0.11050195 0.33848053
0.010878764 -0.10951832 0.33546764
0.015459158 -0.11152616 0.341618
0.016973831 -0.11188447 0.34271532
0.041416921 -0.020071983 0.061482847
0.043211669 -0.018274575 0.055977225
-0.080518596 -0.091351837 0.28149801
-0.074235819 -0.10551074 0.3251285
-0.071076386 -0.10393921 0.3202855
-0.072686456 -0.10838136 0.33397418
-0.02350685 -0.11577681 0.35676271
0.00086604059 -0.11215639 0.34560674
0.015556403 -0.11155942 0.34376699
0.041250668 -0.019935623 0.061430991
0.041962378 -0.018194675 0.056066453
-0.035383455 -0.020632237 0.06396091
-0.075249486 -0.10532475 0.32651144
-0.06601163 -0.1073249 0.33271176
-0.036949523 -0.11420906 0.35405296
-0.025222741 -0.11253247 0.34885579
0.041811652 -0.019833133 0.061483681
0.042240825 -0.019849539 0.061534584
-0.035426654 -0.020532891 0.064039052
-0.076334111 -0.10426494 0.32518619
-0.075514592 -0.10409343 0.32465094
-0.072789066 -0.10318071 0.32180434
-0.070573829 -0.10822147 0.3375259
0.041994546 -0.019737795 0.061559141
0.041920677 -0.017958805 0.056010723
0.042023562 -0.017951608 0.055988312
0.042697467 -0.017983437 0.056087554
0.042765073 -0.017961472 0.056019068
0.043025941 -0.017920554 0.055891335
-0.035540812 -0.020317167 0.063752711
-0.035265498 -0.020473808 0.064244032
-0.070731528 -0.10357076 0.32499176
0.042009823 -0.019625247 0.061581492
-0.035555042 -0.020124137 0.063534677
-0.035098992 -0.020252809 0.063940763
-0.0056944638 -0.10780925 0.34036821
-0.0042350665 -0.10769629 0.34001166
0.042449884 -0.01776208 0.056077242
-0.035221957 -0.019889221 0.063180745
-0.034978159 -0.11241591 0.35710388
0.04084038 -0.019268721 0.061209679
0.0416179 -0.019387111 0.061585844
-0.079342522 -0.10479131 0.33495218
-0.075478338 -0.10342035 0.33057016
0.042319246 -0.01934731 0.061841369
0.041980006 -0.017498001 0.055930316
0.042942993 -0.017500713 0.055938959
-0.033936851 -0.019221604 0.061823666
-0.080099992 -0.10236338 0.32923776
-0.065794088 -0.10537291 0.33891743
-0.036399178 -0.1107063 0.35607189
0.041766215 -0.019155294 0.06161046
0.041853972 -0.019135222 0.061545908
0.04221908 -0.017438635 0.056089103
-0.033847474 -0.019200623 0.062144756
0.042195082 -0.017319739 0.056057215
0.042911991 -0.017270714 0.055898488
0.043015689 -0.017264381 0.055878103
-0.064424299 -0.10302278 0.33555585
-0.037293114 -0.10751081 0.35017365
-0.034145974 -0.10941774 0.35638458
-0.028373294 -0.10774443 0.35093445
0.041720193 -0.018954635 0.061737239
0.042631984 -0.019067317 0.062104404
0.042051233 -0.017200902 0.056025088
0.042323142 -0.017214119 0.056068122
0.042761184 -0.017149448 0.055857599
-0.033811666 -0.01864621 0.061119616
-0.072578587 -0.10377494 0.3401596
-0.064467646 -0.10243931 0.33578151
-0.061130054 -0.100492 0.32939869
-0.037466325 -0.10732615 0.35180002
-0.036723562 -0.10735294 0.35188776
0.041710287 -0.01883015 0.061722577
0.042457733 -0.017111048 0.056087613
-0.03423395 -0.018543825 0.061173975
-0.033998482 -0.018558025 0.061220825
-0.0341556 -0.018935278 0.06246537
-0.03404019 -0.018945366 0.062498629
-0.084967814 -0.10141331 0.33455068
-0.06109 -0.099786073 0.3291828
-0.059321843 -0.099182576 0.32719165
-0.059549309 -0.10075054 0.33236438
0.041082665 -0.018605113 0.061376214
0.041879639 -0.018726841 0.061777771
0.041966088 -0.016997069 0.056071401
0.042722456 -0.016964287 0.055963278
-0.034352116 -0.018922091 0.062824786
-0.081523888 -0.10092542 0.33509058
-0.070111506 -0.10099289 0.33531481
-0.069130011 -0.10165745 0.33752102
-0.038150452 -0.10372931 0.34440023
0.042529546 -0.018660128 0.061955154
-0.036124729 -0.018814012 0.062871754
-0.035546474 -0.019228086 0.064255595
-0.034753688 -0.019169524 0.064059973
-0.083030693 -0.099504739 0.33252019
-0.058918022 -0.098403722 0.32884091
-0.038150601 -0.1030601 0.34440166
-0.037988372 -0.10464093 0.34968406
-0.033771925 -0.10547778 0.35248059
0.041808233 -0.016763791 0.056020439
-0.081438653 -0.098651558 0.33182508
-0.067911498 -0.098576248 0.33157176
-0.059814624 -0.098082125 0.32990974
-0.032802336 -0.10410613 0.35017222
0.041580733 -0.018351153 0.061726093
0.042109136 -0.018409118 0.06192112
-0.036080383 -0.019642726 0.066505432
-0.068756841 -0.098126531 0.33223218
-0.065253384 -0.096104205 0.3253848
-0.059764929 -0.098521084 0.3335678
0.042544298 -0.018362314 0.062170208
-0.036177821 -0.018543348 0.063199282
-0.035244517 -0.018408641 0.062740207
-0.034788303 -0.10420957 0.35516566
0.041822944 -0.018159002 0.06188935
0.042013951 -0.018184409 0.061975896
-0.035106041 -0.018284351 0.062732279
-0.067502551 -0.096060157 0.329575
-0.061708592 -0.096917391 0.33251601
-0.034930579 -0.10172269 0.34900266
0.042600118 -0.016356304 0.056117237
0.042921022 -0.016341478 0.056066394
-0.035352714 -0.018502027 0.063905299
-0.068329401 -0.096588194 0.33361202
-0.064802401 -0.095592737 0.33017391
-0.03497263 -0.10116574 0.34942287
-0.034490965 -0.10194951 0.35212988
0.041261006 -0.017846912 0.061642587
0.042278022 -0.016261712 0.056167364
-0.034748696 -0.017788857 0.061857462
-0.15829071 -0.098224849 0.34155899
0.040485613 -0.01750575 0.060872912
0.041730896 -0.017815188 0.061948955
0.042750191 -0.017909363 0.062276542
-0.061006196 -0.093896776 0.32873124
-0.038386472 -0.10092834 0.35334867
-0.037510194 -0.1006037 0.35221201
-0.036466442 -0.099807352 0.34942406
-0.1585466 -0.097053349 0.34211105
-0.06774082 -0.094816446 0.33422607
-0.039013214 -0.10187796 0.35911769
-0.037970684 -0.10114548 0.35653597
0.04100797 -0.017435759 0.061460912
0.042005479 -0.01763396 0.062159359
0.042561233 -0.017699316 0.062389791
-0.034583442 -0.017545417 0.062274158
-0.086710446 -0.096191198 0.34141213
-0.039006881 -0.10116324 0.35905951
-0.038054191 -0.10067329 0.35732013
0.042990863 -0.015822127 0.056157649
-0.15922931 -0.096135199 0.34358424
-0.15828401 -0.096007228 0.34312707
-0.035183199 -0.10050368 0.3591972
0.042403214 -0.017446563 0.062353551
0.042249002 -0.01570487 0.05612886
0.043291703 -0.015691459 0.056080878
-0.035041533 -0.017737255 0.063836098
-0.069699429 -0.092621803 0.33334392
0.042156897 -0.017278999 0.062186778
0.04226853 -0.015602976 0.056154728
0.042648107 -0.015610084 0.056180477
-0.033742033 -0.097167611 0.35216862
-0.029249221 -0.092481822 0.33518547
0.042543776 -0.017153293 0.062169433
0.042127293 -0.015485957 0.056126535
0.042285316 -0.015499905 0.05617702
-0.034065045 -0.017135084 0.062544227
0.041730545 -0.016971871 0.061948478
0.042587779 -0.015413269 0.056259394
0.042706139 -0.015412569 0.05625689
-0.033524983 -0.016358599 0.060136735
-0.069789134 -0.090794116 0.33377308
-0.068902813 -0.091511846 0.33641177
0.043178245 -0.015257567 0.056089222
-0.061693288 -0.088761091 0.32864851
-0.029558025 -0.091482431 0.33872432
-0.033357076 -0.016293883 0.060767472
-0.068709441 -0.09089911 0.33900541
0.042385444 -0.015098706 0.056310058
-0.033522986 -0.016130522 0.060597897
-0.032934956 -0.016033471 0.060232997
0.041072838 -0.016386136 0.061558127
0.041760534 -0.01655446 0.062190354
0.042225808 -0.01497525 0.056257784
-0.03435608 -0.016222656 0.061392128
-0.033254467 -0.016008139 0.060580552
-0.058205239 -0.087941885 0.33280295
-0.039230473 -0.086877704 0.32877547
-0.036484234 -0.092379093 0.34959453
-0.031371601 -0.092727274 0.35091215
0.0416108 -0.016426921 0.062165201
0.043108001 -0.014879867 0.056310594
-0.033040278 -0.015788004 0.06019038
-0.039562874 -0.085438758 0.32572669
0.040741172 -0.016067863 0.061257184
0.041977219 -0.016345248 0.062314689
0.043211855 -0.014764741 0.056289136
-0.06081403 -0.086312145 0.33151382
-0.03718967 -0.085754395 0.32937175
-0.034266196 -0.015883699 0.061466336
-0.059995763 -0.085511237 0.33090883
-0.037617736 -0.084494293 0.3269735
-0.037011825 -0.089807004 0.34753245
0.041808255 -0.016089171 0.062261403
-0.059393369 -0.08501792 0.33149415
-0.037088089 -0.089314908 0.34824866
0.042187363 -0.014456376 0.056367099
0.042309534 -0.014456958 0.056369305
-0.069231026 -0.085144371 0.33452338
-0.068971954 -0.085710973 0.33674937
-0.049446486 -0.085551411 0.33612269
-0.040328823 -0.083049089 0.32629114
-0.039689682 -0.083171248 0.32677072
-0.037001021 -0.088429779 0.347431
0.041356765 -0.015776336 0.061983585
0.042121485 -0.015864789 0.06233108
0.04209451 -0.014356196 0.056404054
0.042487875 -0.01436691 0.056446135
0.042810671 -0.014353797 0.056394577
-0.034205966 -0.015557528 0.061594427
-0.033910446 -0.015482754 0.061298192
-0.045302756 -0.085211515 0.33736426
-0.037084736 -0.082958043 0.32844239
-0.036251388 -0.089571625 0.35462624
-0.026019923 -0.085824758 0.33979207
0.042489 -0.014257535 0.056447685
-0.033019118 -0.01513508 0.060386956
-0.048854522 -0.08323586 0.33209866
-0.046084426 -0.08209458 0.32754511
-0.037498586 -0.088249713 0.35210305
-0.036397599 -0.089240581 0.35605651
0.042883493 -0.015755534 0.062862158
0.042899251 -0.015712097 0.062688887
0.042592727 -0.014142185 0.056425214
0.042717203 -0.014143467 0.056430399
-0.033013605 -0.01501523 0.060376763
-0.047441088 -0.081383139 0.32724494
-0.036519103 -0.088843912 0.35724515
-0.032107942 -0.089317232 0.35914856
0.04306272 -0.01398927 0.056251526
-0.032918252 -0.014854759 0.06020242
-0.067251436 -0.084548384 0.3426519
-0.062194414 -0.082693428 0.33513397
0.040591322 -0.015107989 0.061228693
-0.034559481 -0.015234277 0.062231004
-0.032922424 -0.014797419 0.060446382
-0.05480171 -0.081699282 0.33373493
-0.052767672 -0.080769509 0.32993692
-0.035792939 -0.0875462 0.35761899
-0.030652978 -0.085992426 0.35127205
0.042843595 -0.013816208 0.056437969
-0.034762315 -0.015143707 0.062356293
-0.034731828 -0.015188694 0.062541306
-0.033821575 -0.015021876 0.061854482
-0.03342358 -0.014903367 0.061366498
-0.050766535 -0.080309123 0.33068246
0.041254111 -0.015015855 0.061829805
0.042571258 -0.015203074 0.062600613
0.042359676 -0.013705999 0.056436121
-0.032871358 -0.014654845 0.060829997
-0.06582541 -0.079928964 0.33177322
-0.063015424 -0.080872983 0.33569163
-0.058378078 -0.082429826 0.34215385
-0.052880026 -0.081843346 0.33971947
-0.052251093 -0.081995815 0.34035248
-0.045192309 -0.078576326 0.32615906
-0.031323068 -0.084408998 0.35036927
0.043284409 -0.013545901 0.056227148
-0.066650502 -0.079421997 0.33235151
-0.052368395 -0.082667589 0.34593266
-0.048881851 -0.080576748 0.3371833
-0.034903683 -0.085155398 0.35634357
0.042179756 -0.01346758 0.056356907
0.042948775 -0.013482124 0.056417704
-0.034775577 -0.01501593 0.063351631
-0.033743508 -0.014742494 0.062197983
-0.068601362 -0.079389393 0.33494002
-0.061451368 -0.081295133 0.34298044
-0.047900967 -0.080696821 0.34045595
-0.034409784 -0.08512494 0.35913795
0.040778577 -0.014532849 0.06131345
0.042526305 -0.013391256 0.056497276
-0.065346278 -0.08091259 0.34418958
-0.062497325 -0.081034034 0.34470624
-0.047843345 -0.078742445 0.33495814
-0.034586646 -0.014519751 0.06227988
-0.03441029 -0.014501542 0.062201738
-0.034055941 -0.014634937 0.062773824
-0.063368194 -0.08053422 0.34543735
-0.054841362 -0.082138747 0.35231966
-0.052698202 -0.081157595 0.34811121
-0.047056608 -0.076807022 0.32945007
-0.041841887 -0.078924596 0.33853298
0.042179983 -0.01317659 0.056518614
-0.034135453 -0.014546707 0.062920451
-0.054972954 -0.08054325 0.34838158
-0.032936014 -0.083185256 0.3598091
0.042907212 -0.013030738 0.056363106
-0.03436818 -0.014465705 0.063100815
-0.061133347 -0.081124067 0.35386974
-0.06048011 -0.081262559 0.35447401
-0.050662391 -0.078950375 0.34438783
-0.042461179 -0.078756839 0.34354359
0.04252854 -0.012952536 0.056500196
-0.034078054 -0.014221951 0.062568188
-0.033809625 -0.014334977 0.063065231
-0.058453642 -0.079874814 0.35140079
0.040076226 -0.013785332 0.06064719
0.041405804 -0.014060766 0.061858952
-0.034508176 -0.014167115 0.062864482
-0.034276925 -0.014238492 0.063181162
-0.033711992 -0.014228046 0.063134789
-0.063889138 -0.078487605 0.34827703
-0.061406873 -0.078170538 0.34687001
-0.061223395 -0.078889459 0.35005993
-0.053348832 -0.077237844 0.3427313
-0.031890966 -0.080390692 0.3567217
0.040041678 -0.013655633 0.060594976
-0.034535252 -0.014055893 0.062913775
-0.066910364 -0.076165438 0.34091419
-0.050972126 -0.07741195 0.34649342
-0.050171576 -0.077319562 0.34607965
-0.045048319 -0.074949056 0.33546942
0.041995388 -0.013928071 0.06234163
-0.034289367 -0.013727456 0.061983168
-0.063110195 -0.077091098 0.34808654
-0.035242699 -0.079686344 0.35980469
-0.034576945 -0.07992506 0.3608827
0.041122779 -0.013737917 0.062030315
0.042533331 -0.014118075 0.063746989
0.042211816 -0.013878018 0.06266284
0.040768169 -0.013318866 0.060138166
0.042850725 -0.012501448 0.056447327
0.04302039 -0.012480676 0.056353569
-0.035185479 -0.078858554 0.35922056
-0.033701338 -0.078978986 0.35976952
0.041026935 -0.013629526 0.062085927
0.042791318 -0.012409478 0.05652827
0.042999715 -0.012365162 0.056326449
-0.034177549 -0.01370728 0.062997997
-0.066758357 -0.072430879 0.33288938
-0.065842621 -0.076317579 0.35075265
-0.053847097 -0.074249238 0.34124655
-0.032809086 -0.077986449 0.35842234
0.043032352 -0.013943613 0.064084351
0.042679824 -0.01230225 0.056540668
0.042893462 -0.012294203 0.056503713
-0.033978291 -0.013558984 0.06287843
-0.063751735 -0.075823754 0.35162491
-0.058432795 -0.074787408 0.34681934
-0.057583414 -0.074647337 0.34616941
-0.033208422 -0.078230292 0.36278492
-0.031290583 -0.077323228 0.35857862
-0.034123339 -0.013335854 0.062406361
-0.06577792 -0.07161817 0.33514422
-0.060811661 -0.074302554 0.34770578
-0.04601226 -0.072074503 0.3372795
0.043530591 -0.0143556 0.067178428
0.044332482 -0.014476806 0.067745507
0.04307735 -0.012024641 0.056270659
-0.046000682 -0.016952634 0.080059946
-0.034189381 -0.013240099 0.06252712
-0.033643775 -0.013341665 0.063007057
-0.066168599 -0.073799074 0.34852093
-0.061045103 -0.073909163 0.34904045
-0.058176987 -0.073117226 0.34530085
-0.047735386 -0.072950423 0.34451276
-0.046414427 -0.072043031 0.34022754
0.04172688 -0.01299271 0.061358988
0.043025699 -0.01193431 0.056360543
-0.033954911 -0.01323548 0.063084722
-0.0603678 -0.073313981 0.34943837
-0.054314695 -0.071251899 0.3396098
-0.051973425 -0.073062599 0.34824044
-0.0515882 -0.073574692 0.35068113
-0.04886318 -0.072864294 0.34729511
-0.036368303 -0.076236337 0.36336762
-0.035664611 -0.076392502 0.36411208
-0.034777366 -0.076153904 0.36297435
0.044325061 -0.014257535 0.06795615
0.043138102 -0.013696223 0.065280735
0.043069396 -0.011836708 0.056417763
-0.034167044 -0.012988448 0.062486231
-0.060856037 -0.073221952 0.35226446
-0.034066223 -0.075591654 0.36366469
0.042260841 -0.0132505 0.063746989
0.042128123 -0.013166457 0.063342631
0.041981868 -0.013036907 0.062719584
0.041709151 -0.012870044 0.061916709
0.043230437 -0.011705369 0.056313396
-0.04507073 -0.016396359 0.079626203
-0.044950314 -0.016414508 0.079714537
-0.03408175 -0.012987107 0.06306994
-0.033363275 -0.012917697 0.062732816
-0.064009778 -0.071023881 0.34491593
-0.061222844 -0.072974324 0.35438782
-0.053271346 -0.070471495 0.34223348
-0.045629166 -0.069969386 0.33979493
-0.035461478 -0.074549615 0.36203831
0.070690908 -0.043608904 0.21177953
0.044195846 -0.013998374 0.067980826
0.040850159 -0.012408346 0.060259223
0.042537868 -0.011669964 0.056673467
0.042633068 -0.0116629 0.056639075
0.042860635 -0.011658937 0.056619823
-0.03396707 -0.012621522 0.061878741
-0.03402286 -0.01289323 0.063210964
-0.061266087 -0.070589632 0.34607476
-0.061093591 -0.072132647 0.35363966
-0.046773247 -0.06885466 0.33756894
-0.045134641 -0.068557501 0.33611232
0.040598039 -0.012176901 0.059699059
0.043081366 -0.011543125 0.056591868
-0.045229159 -0.01608254 0.07960546
-0.03400632 -0.012663573 0.06268239
-0.06548851 -0.068911374 0.34109873
-0.065462045 -0.069659054 0.34479946
-0.057626538 -0.069988251 0.34642857
-0.053843461 -0.069883287 0.34590882
-0.031800114 -0.0718624 0.35570556
0.073426321 -0.042534471 0.21053773
0.043024678 -0.013111442 0.064899147
0.040758803 -0.012146801 0.060124397
-0.034006171 -0.012541652 0.062682152
-0.033633359 -0.012602776 0.062987566
-0.033494927 -0.012601346 0.062980354
-0.066171817 -0.066731662 0.33351928
-0.066168033 -0.067454547 0.3371318
-0.060834996 -0.06875661 0.34363967
-0.060326152 -0.069014758 0.34492964
-0.036385305 -0.072737843 0.36353725
-0.031995468 -0.071607977 0.35789055
0.040866159 -0.012023658 0.060093284
0.043315284 -0.011320978 0.056581438
-0.033974133 -0.012506574 0.063120484
-0.033269785 -0.012445003 0.062809467
-0.049071871 -0.068072528 0.34355921
-0.0083515793 -0.071504235 0.36087888
0.07116545 -0.041447312 0.20918304
0.042684138 -0.011235863 0.056706905
0.042987961 -0.011220247 0.056628168
-0.033983 -0.012193471 0.062149704
-0.033533148 -0.012370497 0.063052237
-0.058561839 -0.067340165 0.34323102
-0.033345036 -0.071469307 0.36427754
-0.032427244 -0.071163863 0.36272019
0.13483639 -0.063742936 0.32489604
0.13590078 -0.062633306 0.31924003
0.13463344 -0.061739206 0.31468326
0.041425139 -0.012026846 0.061300576
0.043199874 -0.011102349 0.05658865
-0.034025781 -0.012040764 0.061985612
-0.033802025 -0.012247711 0.063050985
-0.064888246 -0.066390395 0.34177703
-0.053804033 -0.068078578 0.35046798
-0.047335558 -0.065353096 0.3364374
-0.0053541958 -0.071271151 0.36690336
0.13788137 -0.061982781 0.31908661
0.16797712 -0.064098179 0.32997686
0.16931881 -0.063542962 0.32711869
0.041983116 -0.012106359 0.062323391
-0.063900016 -0.066215724 0.34432465
-0.052930273 -0.067238778 0.34964424
-0.05123616 -0.066977978 0.34828824
-0.049291544 -0.066364288 0.34509712
-0.048059501 -0.065688461 0.34158283
-0.009109363 -0.069296241 0.36034328
0.13731723 -0.060512602 0.31466812
0.043016493 -0.010927916 0.056825697
0.043120578 -0.010923535 0.056802869
0.04325106 -0.010895222 0.056655645
0.043322716 -0.010852516 0.056433558
-0.045803763 -0.01528883 0.080314696
-0.034101419 -0.011918724 0.062611043
-0.033799894 -0.012049764 0.063299417
-0.033468999 -0.012028098 0.063185573
-0.063772671 -0.067756742 0.35593635
-0.058884524 -0.067386389 0.35399109
-0.051771916 -0.066034585 0.34689015
-0.046736158 -0.064209253 0.33730119
-0.034329139 -0.068205923 0.35829622
-0.029569991 -0.067829013 0.35631615
-0.0061455444 -0.069925666 0.36733025
-0.0038115978 -0.070319951 0.36940175
0.16898227 -0.062664658 0.32918721
0.041472763 -0.011870414 0.062357187
0.042769387 -0.010816365 0.056820154
0.043268599 -0.010789424 0.056678653
-0.041249596 -0.01383549 0.073430002
-0.034120716 -0.011757553 0.062401593
-0.033978455 -0.01194191 0.063380122
-0.03385403 -0.011945784 0.063400805
-0.06324055 -0.064207196 0.34077102
-0.062803425 -0.066842765 0.3547588
-0.060087301 -0.066355348 0.3521716
0.13650493 -0.061030686 0.32391196
0.13650985 -0.05894047 0.31281811
0.13802436 -0.05930382 0.31474715
0.13778402 -0.05891344 0.31267518
0.04198961 -0.01185748 0.062932074
0.042993337 -0.010701209 0.05679518
0.043244086 -0.010703176 0.05680567
-0.045573644 -0.015013814 0.080514729
-0.045274906 -0.014971942 0.080290139
-0.033562623 -0.011815369 0.0633623
-0.063200973 -0.063504905 0.34055775
-0.059658132 -0.066028625 0.35409206
-0.049139358 -0.063206792 0.33895952
-0.031656258 -0.067646712 0.36276931
-0.0075949058 -0.067424059 0.36157507
-0.0068765506 -0.067962408 0.3644622
0.13581961 -0.060404003 0.32392877
0.13615233 -0.059639931 0.31983107
0.13445584 -0.057454467 0.30811125
0.16751832 -0.06188345 0.33186239
0.16815481 -0.061339438 0.32894486
0.16823485 -0.061113119 0.32773107
0.043016188 -0.010596395 0.05682534
-0.043984286 -0.014503479 0.078597128
-0.033435814 -0.011695176 0.063378692
-0.030943207 -0.067076474 0.36350125
-0.0068789795 -0.067277491 0.36459047
0.135144 -0.059476852 0.3223173
0.13624543 -0.059058458 0.32004982
0.16484287 -0.060260087 0.32656223
0.16740325 -0.0604285 0.32747465
0.042072318 -0.010432571 0.056536198
-0.047387369 -0.015058324 0.082473338
-0.059524469 -0.065335691 0.35783821
-0.0053778514 -0.06728673 0.3685239
0.13498302 -0.059081256 0.32358283
0.13622561 -0.057846755 0.31682175
0.16716588 -0.060210496 0.32976788
0.16810934 -0.060296148 0.33023661
0.16856259 -0.060205847 0.32974249
0.042829767 -0.011572033 0.063379169
0.043350738 -0.01033935 0.056627691
-0.045812838 -0.014510915 0.08033067
-0.043117903 -0.013865173 0.076755822
-0.051305972 -0.062098354 0.34376818
-0.026048683 -0.063212365 0.34993488
-0.025374554 -0.063396662 0.35095555
0.13553162 -0.056939185 0.3152079
0.16754475 -0.058714062 0.32503349
0.042213541 -0.010217637 0.056563616
0.043373421 -0.010234594 0.056657374
0.043411627 -0.010215074 0.05654937
-0.04541079 -0.014336184 0.080227077
-0.045008428 -0.014263079 0.079817593
-0.0424987 -0.013518959 0.075653613
-0.033967935 -0.011232674 0.062859297
-0.062067814 -0.061174214 0.34233719
-0.051498957 -0.060790449 0.34018916
-0.037440173 -0.064107925 0.35875434
-0.035299234 -0.064398766 0.3603819
-0.027629204 -0.062724054 0.35101002
-0.0060501322 -0.06462124 0.36162668
0.16815613 -0.059277296 0.33172125
0.16797638 -0.058474243 0.32722777
0.17673311 -0.059300363 0.33185083
0.17730576 -0.059254706 0.33159524
0.043431334 -0.010137945 0.056733012
-0.044975214 -0.014097437 0.079758704
-0.033664294 -0.011278778 0.063811719
-0.049879186 -0.059930086 0.33906382
-0.034677394 -0.063971877 0.36193103
-0.031040646 -0.064451724 0.36464602
-0.030066006 -0.064035833 0.36229306
-0.026765727 -0.061780214 0.34953123
0.13487451 -0.056568146 0.32004327
0.13472344 -0.055657953 0.31489354
0.13462842 -0.055342197 0.31310731
0.16761167 -0.058689892 0.33204728
0.17661893 -0.0581505 0.32899565
0.042757846 -0.011399895 0.064496696
0.043176435 -0.011401206 0.064504206
0.04305692 -0.011297494 0.063917458
-0.045853131 -0.01410757 0.080703795
-0.041904978 -0.013040006 0.074596703
-0.038074695 -0.011893362 0.068037093
-0.034005739 -0.011044145 0.063179135
-0.060694478 -0.060664386 0.34703571
-0.056314312 -0.061551869 0.35211271
-0.052583762 -0.059874922 0.34251934
-0.050665967 -0.059343547 0.33947974
-0.044055872 -0.062309355 0.35644585
-0.029981308 -0.063153028 0.36127239
-0.027769886 -0.061671525 0.35279733
0.13373867 -0.055474788 0.31734794
0.1358262 -0.054408997 0.31125134
0.1678907 -0.057652652 0.32980722
0.043554269 -0.0099177063 0.056735158
-0.038452215 -0.011877716 0.068711698
-0.034216277 -0.010859579 0.062821925
-0.034473844 -0.011027902 0.063795507
-0.033735178 -0.011009306 0.063688099
-0.063659154 -0.060694695 0.35111421
-0.060878433 -0.060171366 0.34808761
-0.045179911 -0.062114239 0.3593263
-0.032789044 -0.061920077 0.35820347
-0.025407642 -0.060746342 0.35141319
-0.0060404241 -0.062411666 0.36104721
-0.0052932575 -0.062702 0.36272675
0.12933308 -0.054149121 0.31324869
0.16696268 -0.056459248 0.32661277
0.16485557 -0.055284441 0.31981653
0.17983419 -0.056119025 0.32464463
0.04306303 -0.011085689 0.064130008
0.042719685 -0.0098386109 0.0569157
0.043079451 -0.0098374486 0.056908906
0.043355845 -0.0098173916 0.056792974
0.04343285 -0.0098073781 0.056734979
-0.045876704 -0.01380083 0.08074528
-0.037467383 -0.011487156 0.067208588
-0.034014754 -0.010844439 0.063447773
-0.056040727 -0.06070146 0.35514826
-0.050489537 -0.058661491 0.3432129
-0.047910504 -0.058201849 0.3405239
-0.046761148 -0.058585614 0.34276897
-0.045960896 -0.061432838 0.35942787
-0.035101764 -0.061251402 0.35836595
-0.029168785 -0.061662883 0.36077327
-0.027861997 -0.060499638 0.35396761
-0.0038195178 -0.063269138 0.37017125
0.021970861 -0.022191539 0.12983686
0.022289045 -0.0222321 0.13007444
0.071180731 -0.036920682 0.21601337
0.071042918 -0.036611751 0.21420556
0.13561526 -0.054724187 0.32017714
0.13422056 -0.053353757 0.31215864
0.043409724 -0.011084527 0.064852715
0.042236123 -0.0097006857 0.056756377
-0.045908652 -0.013653338 0.080801547
-0.033928327 -0.010693818 0.063286662
-0.044620208 -0.061001658 0.36101156
-0.043438725 -0.060431421 0.35763711
-0.03873118 -0.061452001 0.36367697
-0.032892548 -0.060718238 0.35933429
-0.031802036 -0.061580926 0.3644399
0.023425266 -0.02253738 0.13337773
0.13597155 -0.054518908 0.32264632
0.16450396 -0.053702801 0.31781656
-0.033745699 -0.010389566 0.062202036
-0.056488879 -0.059794784 0.35798842
-0.050205 -0.057844192 0.3463102
-0.043271594 -0.059506238 0.35626107
-0.033445962 -0.059636891 0.35704321
-0.032286845 -0.060322911 0.36114997
0.13556738 -0.05319187 0.31845695
0.13293481 -0.051640362 0.3091684
0.042309962 -0.0094965398 0.056855559
0.043468207 -0.0094577372 0.056623042
-0.046639048 -0.013500601 0.081779301
-0.045380794 -0.013285756 0.080477893
-0.063572906 -0.057885349 0.35063857
-0.036085404 -0.05827567 0.35300261
-0.027295507 -0.058844775 0.35644954
-0.0022508428 -0.061484009 0.37243694
0.023720659 -0.022296369 0.13505965
0.072766863 -0.034872025 0.21123582
0.13363349 -0.053157121 0.32199758
0.13429272 -0.051053077 0.30925208
0.13524511 -0.051163346 0.30991977
0.043218616 -0.0093986094 0.056931973
-0.045939647 -0.013190955 0.080856025
-0.063381918 -0.057712078 0.35375541
-0.053618394 -0.056978494 0.34925884
-0.0474995 -0.055076897 0.33760267
-0.032205887 -0.058770716 0.36024421
-0.030525051 -0.060007393 0.36782449
-0.0266174 -0.058335274 0.357575
0.13370328 -0.051497668 0.31566316
0.16634154 -0.053533435 0.32814163
0.16622038 -0.053269804 0.32652611
0.043033104 -0.0093004405 0.057008624
-0.063990973 -0.056893617 0.35294455
-0.063831888 -0.057429105 0.35626692
-0.059155278 -0.058070838 0.36024755
-0.052050628 -0.055424899 0.34383351
-0.050961249 -0.055042088 0.3414585
-0.037966274 -0.057465822 0.35649437
-0.028358035 -0.058074355 0.36026961
-0.025799587 -0.057520598 0.35683411
-0.0069056898 -0.058999151 0.36600667
0.022099093 -0.021051452 0.13059455
0.025356017 -0.022992358 0.14263529
0.13387969 -0.05044198 0.31292146
0.13691691 -0.050329179 0.31222159
0.041681208 -0.010134876 0.062872648
0.041589733 -0.0099522173 0.061739385
0.042950436 -0.00919801 0.057060719
-0.045080625 -0.012828797 0.080556333
-0.059465475 -0.056930184 0.35748357
-0.030631997 -0.05878222 0.36911315
-0.0076677576 -0.058134109 0.36504322
-0.0030142069 -0.058675706 0.36844391
0.00013732165 -0.059345484 0.37264973
0.023260646 -0.021091461 0.13244051
0.024020761 -0.021518826 0.13512391
0.17191768 -0.052676558 0.33077401
0.041392758 -0.0099433362 0.062437594
0.042692967 -0.0090841949 0.057042539
0.043254092 -0.0090740025 0.056978762
-0.047200389 -0.012922496 0.082147896
-0.046996288 -0.012914687 0.082098067
-0.045212708 -0.01270926 0.080792248
-0.033904396 -0.0098308921 0.062494516
-0.033786766 -0.0098355711 0.062524021
-0.060784467 -0.056042284 0.35625786
-0.054681979 -0.055261731 0.35129589
-0.050196759 -0.05290848 0.33633608
-0.035706572 -0.056120694 0.35675591
-0.032023542 -0.057728738 0.36697823
-0.0068889409 -0.057436079 0.36511844
0.00013720244 -0.058572322 0.37234098
0.023816667 -0.023318365 0.14823395
0.022803448 -0.020934016 0.13307613
0.040524278 -0.0095849335 0.060931087
0.043352086 -0.0089332461 0.056788027
-0.0469402 -0.012739867 0.082000077
-0.033923276 -0.0097919405 0.063026011
-0.03381189 -0.0097987354 0.063069403
-0.03284248 -0.0097509921 0.062762558
-0.061415516 -0.055232376 0.35550302
-0.052828439 -0.053462803 0.34411317
-0.029876821 -0.05741173 0.36953062
-0.027237341 -0.055261493 0.35569018
0.043066237 -0.0088638961 0.057052553
0.043363694 -0.0088251829 0.056803226
0.043411605 -0.008810252 0.056707203
-0.061204068 -0.05503425 0.35871702
-0.056341283 -0.054778934 0.3570531
-0.045236163 -0.055196375 0.35977358
0.024056531 -0.022669479 0.14776105
-0.047115617 -0.012420982 0.082000315
-0.033040278 -0.0094104707 0.062125504
-0.033472709 -0.0097291172 0.06422925
-0.046142913 -0.051234573 0.33823711
-0.037398539 -0.055417001 0.36584812
-0.032525919 -0.055110365 0.36382395
-0.030705638 -0.05604592 0.37000054
0.023344591 -0.023245618 0.1534614
0.022214741 -0.02122587 0.1401276
0.039442517 -0.008954376 0.059114635
0.042288188 -0.0086325705 0.056990027
-0.047016121 -0.012281388 0.082132757
-0.046820365 -0.012276083 0.082097232
-0.044782154 -0.012011796 0.080329716
-0.033113457 -0.0093102753 0.062263072
-0.033562951 -0.0096698105 0.064667642
-0.095549278 -0.030688092 0.20522934
-0.04961919 -0.051179886 0.34226948
-0.036005281 -0.053792357 0.35974032
-0.030723356 -0.055358499 0.37021416
0.058579296 -0.020072564 0.13423699
0.043392304 -0.0085233152 0.057000279
-0.033644758 -0.0092621744 0.06275773
-0.034836285 -0.052489996 0.35565537
-0.028561093 -0.053551674 0.36284918
-0.0014602467 -0.055171311 0.37382346
0.043066442 -0.0084441006 0.057214797
-0.046988122 -0.012044817 0.082701385
-0.045023404 -0.011717498 0.080454051
-0.03391587 -0.0091408789 0.062762976
-0.033833914 -0.0094554424 0.064922333
-0.058904938 -0.051573992 0.35411376
-0.038269348 -0.052335113 0.35934037
-0.032307394 -0.052632213 0.3613798
-0.027182758 -0.051699758 0.35497719
0.040589452 -0.0088035166 0.060446322
-0.033585094 -0.0090021193 0.062646449
-0.033921562 -0.0093918741 0.065358579
-0.059996329 -0.049904585 0.34728795
-0.037842862 -0.051061034 0.35533577
-0.034649037 -0.050832272 0.35374385
-0.031271569 -0.052788705 0.36735862
-0.024977274 -0.051154166 0.35598391
0.022141106 -0.020625472 0.14353353
-0.046516232 -0.011649311 0.082179964
-0.044748448 -0.011378437 0.080269277
-0.03363388 -0.0089288652 0.06298846
-0.033741198 -0.0092155039 0.065011084
-0.059600107 -0.04890421 0.34499449
-0.058614276 -0.049949259 0.35236651
-0.056458376 -0.050718725 0.35779518
-0.053322099 -0.049930245 0.35223252
-0.036523692 -0.050647169 0.35728997
-0.034132026 -0.050498158 0.35623878
-0.024986222 -0.050480098 0.35611171
0.022286274 -0.021063477 0.14859217
0.022275008 -0.020469442 0.14440149
0.037753448 -0.022727028 0.16032773
0.044304658 -0.0096285641 0.067924917
0.042144276 -0.0089825094 0.06336689
0.042300954 -0.0089014173 0.062795281
-0.047165982 -0.011519521 0.082394421
-0.045757525 -0.011388123 0.081454694
-0.045152016 -0.011280328 0.080683887
-0.033868901 -0.0089035332 0.06368351
-0.036045127 -0.049297988 0.35260838
-0.032645397 -0.051052928 0.36516052
0.047378562 -0.010535151 0.075353742
0.042096831 -0.0087093413 0.062294602
0.042944055 -0.0079991519 0.057214677
0.043023184 -0.0079911053 0.057157338
-0.0447549 -0.011067927 0.080280721
-0.043038823 -0.010725737 0.077799141
-0.097497247 -0.029003948 0.21037918
-0.060714923 -0.047860235 0.34715253
-0.055301599 -0.048980266 0.35527653
-0.02557192 -0.048760861 0.35368544
-0.0014625937 -0.051620066 0.37442464
0.0074301511 -0.052250832 0.37899989
0.035654772 -0.02106607 0.15280217
0.036453433 -0.0211505 0.15341455
0.046958126 -0.010192484 0.073931098
0.042115182 -0.0086192191 0.062519491
0.042571515 -0.0078868568 0.057207048
0.043529101 -0.0078390837 0.056860685
-0.033519201 -0.008635968 0.063536704
-0.031376518 -0.0082510412 0.060704887
-0.094829924 -0.027941421 0.20557171
-0.092679881 -0.027435049 0.20184606
-0.061657868 -0.047339529 0.34828776
-0.029468969 -0.049541265 0.36448616
-0.027314536 -0.048482686 0.3566981
0.0074331313 -0.051534534 0.37915164
0.0098507479 -0.051463962 0.37863237
0.023124486 -0.020097196 0.14785963
0.039440405 -0.029797643 0.21922821
0.047639716 -0.010333717 0.076027513
0.043375641 -0.0087798536 0.06459552
0.043485925 -0.0077208579 0.056804359
-0.033380561 -0.0084771812 0.063273966
-0.031054251 -0.0080163181 0.059833944
-0.030502833 -0.0079394281 0.059259593
-0.098398589 -0.044428915 0.33161789
-0.097937085 -0.044541389 0.33245713
-0.051363878 -0.046108872 0.34415621
-0.031837545 -0.048880845 0.36484677
-0.00066618621 -0.050457001 0.37661105
0.00013782829 -0.050115764 0.37406427
0.0017458275 -0.050375164 0.37600058
0.04619851 -0.0094275475 0.070367157
0.041256789 -0.0081536472 0.060858965
0.042727508 -0.0076704323 0.057252228
-0.03208711 -0.0081292689 0.061570466
-0.030189849 -0.0077118576 0.058409035
-0.028935321 -0.0074220598 0.056214333
-0.096293829 -0.027433962 0.20778245
-0.088472925 -0.025679484 0.19449455
-0.087051384 -0.02538614 0.19227284
-0.089158945 -0.0282695 0.21411115
-0.099843048 -0.044109225 0.33407944
-0.051487423 -0.045548946 0.34498399
0.00094591826 -0.049839944 0.37748379
0.0082922429 -0.050356179 0.38139349
0.0091240481 -0.05044806 0.38208991
0.0099073276 -0.050278753 0.38080734
0.010669746 -0.050037146 0.37897736
0.011359952 -0.049515128 0.37502319
0.037221979 -0.028679937 0.21721977
0.038213301 -0.028381735 0.21496135
0.03486789 -0.020479903 0.15511316
0.034560166 -0.02010797 0.15229613
0.06156709 -0.018719241 0.14177793
0.061684232 -0.018662974 0.141352
0.047873273 -0.0099515319 0.075371861
0.043283135 -0.0075493157 0.057177961
0.043393601 -0.0075260699 0.057001948
-0.045318417 -0.010534614 0.080981314
-0.033186145 -0.0080207288 0.061656475
-0.031722061 -0.0079510212 0.061120689
-0.027548574 -0.0070205927 0.05396837
-0.10249215 -0.027261078 0.20955938
-0.094723307 -0.0255294 0.19624776
-0.090792857 -0.024688736 0.18978542
-0.090625323 -0.024753749 0.1902855
-0.090321936 -0.025830075 0.19855934
-0.090859838 -0.02623044 0.20163661
-0.091231309 -0.028355092 0.217969
-0.088363789 -0.027747229 0.21329635
-0.051007606 -0.044459909 0.34176904
-0.032617204 -0.047461867 0.3648451
0.03489238 -0.020386338 0.15671211
0.034882057 -0.019626662 0.15087265
0.035911851 -0.019660801 0.15113527
0.042889349 -0.0074546635 0.057304978
-0.0314373 -0.0078263879 0.061075032
-0.090903841 -0.024458781 0.19087023
-0.093640439 -0.025308609 0.19750255
-0.10002609 -0.02728048 0.21289033
-0.083291866 -0.026032329 0.20314974
0.0017642602 -0.048690856 0.37997109
0.038824059 -0.027653605 0.21580237
0.039331216 -0.027685985 0.2160545
0.057667568 -0.018276572 0.14262599
0.060164459 -0.018020049 0.14062446
0.061562423 -0.018077523 0.14107293
0.060514331 -0.017597407 0.13732582
0.042714633 -0.0080997646 0.063208818
0.043020226 -0.0073446929 0.057316184
0.043099046 -0.0073372424 0.057258129
0.043297015 -0.0073293149 0.057196319
-0.047231652 -0.010451645 0.082818449
-0.046597488 -0.010428518 0.082635581
-0.093574412 -0.024574712 0.19472975
-0.092137925 -0.024305537 0.19259709
-0.082347505 -0.025085121 0.19877392
-0.097831436 -0.042216837 0.33452576
-0.031445809 -0.04661867 0.36940557
0.0056908652 -0.046848446 0.37122649
0.024123713 -0.019735783 0.15638596
0.038313113 -0.027198762 0.21552271
0.039336964 -0.027269855 0.21608609
0.03581585 -0.020497113 0.16241878
0.055958033 -0.017747119 0.14062804
0.042817011 -0.0072403252 0.057372153
0.042924047 -0.0072377026 0.057351351
0.043329481 -0.0072235465 0.057239234
-0.033105589 -0.0077973306 0.062752664
-0.032957487 -0.0078579485 0.063240647
-0.10387667 -0.02650632 0.21332246
-0.093520842 -0.025666311 0.20656222
-0.093973003 -0.025912732 0.20854539
-0.096905671 -0.040874302 0.32895595
-0.072190769 -0.042466015 0.34176558
-0.071576528 -0.042535037 0.34232146
-0.033572219 -0.044531792 0.35839099
-0.028924368 -0.045659125 0.36746424
0.0025690868 -0.047079176 0.37889248
0.0057253987 -0.046406567 0.37347907
0.054036662 -0.017435625 0.14032179
0.055439983 -0.017499924 0.14083904
0.063036814 -0.018216416 0.14660567
0.041303523 -0.0075705349 0.060927927
-0.046793096 -0.010188222 0.083298147
-0.044965141 -0.0098653138 0.080658019
-0.033790641 -0.0077091753 0.063029826
-0.098249041 -0.024896592 0.20355242
-0.087727718 -0.025122911 0.20540267
-0.098571651 -0.040631652 0.33220106
-0.09737917 -0.040431321 0.33056337
-0.09827096 -0.041099846 0.33602875
-0.073333643 -0.041212261 0.33694762
0.0073929876 -0.046123803 0.37710434
0.0090508685 -0.046358854 0.37902611
0.012147225 -0.045815289 0.37458259
0.024872445 -0.019721285 0.1612398
0.025350697 -0.019558534 0.15990871
0.03952641 -0.026248708 0.21460706
0.034729686 -0.019263059 0.15749329
0.034126058 -0.018053353 0.14760274
0.052561492 -0.017170742 0.140387
0.052830685 -0.017160773 0.14030498
0.054782692 -0.017208725 0.14069718
0.041426837 -0.0074979961 0.061303079
0.042979017 -0.0070236623 0.057424784
0.043475993 -0.0070048273 0.057271063
0.04350964 -0.0069710016 0.056994438
-0.047063597 -0.0098959506 0.082215607
-0.10524302 -0.025676385 0.21331948
-0.1032593 -0.025524199 0.21205455
-0.096286975 -0.025478184 0.21167248
-0.080901422 -0.0227997 0.18941981
-0.031905644 -0.044009119 0.36562723
-0.029871978 -0.044471771 0.36947078
0.011296026 -0.044886053 0.37291306
0.025950097 -0.019440606 0.16151208
0.0339044 -0.017650977 0.14664406
0.036605719 -0.017899007 0.14870495
0.054687902 -0.0169992 0.14122897
0.054960012 -0.016989991 0.14115268
0.046888798 -0.0087968409 0.073084176
0.042628311 -0.0076411664 0.063482642
-0.047621883 -0.0099631846 0.084133327
-0.033319376 -0.0074491203 0.062903047
-0.03274978 -0.0074114501 0.062585413
-0.096456848 -0.024877086 0.21007174
-0.097771905 -0.025940701 0.21905392
-0.094881557 -0.025417283 0.21463388
-0.088062502 -0.024789125 0.20932931
-0.076761506 -0.039812267 0.33619004
-0.072460763 -0.040623844 0.34304374
0.025612988 -0.019132614 0.16156322
0.025798984 -0.017829269 0.15055758
0.033826463 -0.017991215 0.15192479
0.035188593 -0.017537236 0.14809138
0.036291413 -0.017611623 0.14871937
0.061465252 -0.017629504 0.14887077
0.042596899 -0.0076090395 0.064253986
0.041811861 -0.0074209869 0.062665641
0.043306507 -0.006793946 0.057370782
0.043523867 -0.0067705214 0.057173133
-0.04754331 -0.0097466409 0.083678544
-0.045113318 -0.0094257891 0.080923736
-0.033905335 -0.0073664486 0.063243806
-0.033023648 -0.0073207915 0.062852025
-0.10186189 -0.024472758 0.21010715
-0.0955837 -0.025184974 0.21622211
-0.082809009 -0.039300472 0.3374086
-0.077624135 -0.039598614 0.33996814
-0.07103955 -0.03957358 0.33975321
0.024164848 -0.018246487 0.15665275
0.023969404 -0.016709745 0.14345926
0.033320382 -0.017772242 0.15258127
0.033662587 -0.017442629 0.14975125
0.035059869 -0.017186195 0.14754957
0.036508128 -0.017274588 0.14830858
0.036703095 -0.017217353 0.14781708
0.037903018 -0.017332628 0.14880687
0.038161062 -0.017305374 0.14857322
0.037947565 -0.016926885 0.14532346
0.060186841 -0.017157063 0.14729947
0.041964669 -0.0072560608 0.062296033
-0.033398651 -0.0072508454 0.063308239
-0.092811279 -0.024046272 0.20995063
-0.087578736 -0.022912145 0.20004839
-0.088946305 -0.023972169 0.2093032
-0.097828709 -0.037491202 0.32733935
-0.096763007 -0.038745344 0.33828944
-0.090574808 -0.038269281 0.33413237
-0.075732879 -0.039466709 0.3445875
0.023810871 -0.01767911 0.15435797
0.023387142 -0.01623942 0.14178818
0.039419431 -0.024513066 0.21402627
0.033479065 -0.017909408 0.15636879
0.033529446 -0.017414778 0.15205044
0.03807117 -0.017118901 0.14946705
0.050848406 -0.016202375 0.14146441
0.052918028 -0.016280934 0.14215082
0.054478519 -0.01638481 0.14305717
0.060760565 -0.017031491 0.14870352
0.14989446 -0.028875351 0.25211376
0.15009297 -0.028707206 0.25064534
0.15699024 -0.02960375 0.25847334
0.042477392 -0.0065753758 0.0574103
0.04279552 -0.0065865517 0.057508051
0.042952619 -0.0065918267 0.057553887
0.043047931 -0.0065875947 0.057516873
0.043233864 -0.0065784752 0.057437241
0.043499343 -0.0065629482 0.057301819
-0.032724418 -0.0069000125 0.061285317
-0.032283328 -0.006834358 0.060702264
-0.031855248 -0.0070261061 0.062405288
-0.089565687 -0.023261353 0.2066043
-0.096796267 -0.03726536 0.33098608
-0.076805465 -0.038967133 0.34610194
