# .PCD v0.7 - Point Cloud Data file format
VERSION 0.7
FIELDS x y z
SIZE 4 4 4
TYPE F F F
COUNT 1 1 1
WIDTH 1362
HEIGHT 1
VIEWPOINT 0 0 0 1 0 0 0
POINTS 1362
DATA ascii
-0.16277759 -0.071574479 0.2622647
-0.15593168 -0.07115598 0.26327568
-0.15366207 -0.070043385 0.26230758
-0.14960678 -0.068269208 0.26086375
-0.14998013 -0.077965617 0.27375489
-0.14778532 -0.078892618 0.27549922
-0.13408172 -0.080830514 0.28123745
-0.13502173 -0.082719937 0.28355026
-0.12540615 -0.081644326 0.28431755
-0.11452003 -0.07872282 0.28290612
-0.11262366 -0.07865487 0.28325036
-0.088783398 -0.054567039 0.25648493
-0.082502753 -0.052345864 0.2549538
-0.084180161 -0.056582473 0.26023862
-0.092567667 -0.072337136 0.27939788
0.040460076 -0.171156 0.44217572
0.049963504 -0.16165818 0.43164566
0.052446548 -0.15918191 0.4289017
0.074535742 -0.1593747 0.43422902
0.076545119 -0.15581386 0.42992461
0.081467822 -0.16150533 0.43867129
0.083598837 -0.1587192 0.43543157
0.092030406 -0.044827208 0.28494564
0.10879287 -0.059437625 0.30834547
0.10996227 -0.059444532 0.30862325
0.0944767 -0.012642771 0.24243481
0.097620085 -0.014284998 0.2453541
0.096542701 -0.0028708167 0.22983122
0.098121449 -0.0034668669 0.23099114
0.099196523 -0.004438445 0.23253819
0.099561334 -0.0017032251 0.22896139
0.1016297 -0.0019082315 0.22971053
0.10188581 -0.00022251159 0.22751319
-0.15651585 -0.070614561 0.26334298
-0.14986892 -0.067416891 0.26057255
-0.15615451 -0.075020954 0.26934665
-0.14503656 -0.082137659 0.28146172
-0.1422585 -0.079685181 0.27880433
-0.13600321 -0.076003864 0.27529415
-0.12682593 -0.088679209 0.29443252
-0.12082671 -0.083268672 0.2885401
-0.11357261 -0.076840565 0.28156865
-0.11273117 -0.08255668 0.28944248
-0.088340506 -0.053398103 0.25586373
0.055368822 -0.16054599 0.4328298
0.068013564 -0.16956791 0.44785559
0.069961458 -0.16974802 0.44854471
0.072577208 -0.16336803 0.44057301
0.072938249 -0.16040887 0.43667969
0.078531608 -0.15630586 0.43245107
0.082237095 -0.15651907 0.43358824
0.08779034 -0.15675925 0.43518621
0.08574751 -0.05528456 0.29837114
0.09142074 -0.055291854 0.2996836
0.091052294 -0.044706836 0.28537622
0.10867658 -0.058875829 0.30846125
0.10946178 -0.059255138 0.30915123
0.096479058 -0.012891904 0.24387434
0.10042846 -0.0015945211 0.2296015
0.10013141 0.00084714592 0.22625259
-0.16623655 -0.070455119 0.26182583
-0.15802845 -0.06702625 0.25908574
-0.15718107 -0.070154339 0.26350027
-0.15472169 -0.068865821 0.26232719
-0.15244603 -0.067744985 0.26133782
-0.15131025 -0.067181051 0.26083791
-0.16216327 -0.085117415 0.28254145
-0.16046418 -0.08400099 0.28142565
-0.13204509 -0.0779493 0.27979037
-0.1143347 -0.078966185 0.28523076
-0.11172378 -0.07792443 0.28442502
-0.11473723 -0.087508887 0.29666272
0.037868794 -0.17781125 0.45354113
0.040152363 -0.16819893 0.44109815
0.055136766 -0.15878658 0.43184328
0.060498621 -0.16394551 0.44003436
0.064957753 -0.16830952 0.44694588
0.068470091 -0.17209156 0.45285493
0.071340933 -0.16663031 0.44614717
0.077376336 -0.15491734 0.43173239
0.081039637 -0.15902279 0.43811235
0.093158394 -0.15927733 0.44123963
0.081693754 -0.043577425 0.28252351
0.090628028 -0.039084673 0.2785151
0.095814645 -0.012917213 0.24440609
0.099097595 -0.0011016503 0.22922064
0.099567026 -0.0012199208 0.229488
0.10401629 0.023551472 0.19709274
-0.15855043 -0.065355659 0.25761956
-0.15569776 -0.083034173 0.28221983
-0.15691362 -0.085017934 0.28462735
-0.15048848 -0.081468642 0.28129676
-0.13927291 -0.094072774 0.30094624
-0.12353602 -0.077479064 0.28208816
-0.11828612 -0.07950826 0.28604314
-0.1120185 -0.072751403 0.27833194
0.041796941 -0.16541095 0.43918782
0.053413317 -0.15984775 0.43432269
0.054969888 -0.15753208 0.43154404
0.055862796 -0.1573309 0.43147677
0.060468599 -0.16368859 0.44114655
0.066590741 -0.17232166 0.45424676
0.078794748 -0.15282163 0.43064013
0.080506876 -0.15238012 0.43043569
0.085384175 -0.048361361 0.29066938
0.089986786 -0.044106863 0.28596479
0.092469737 -0.002412878 0.23006359
0.095806152 -0.0021897554 0.23052809
0.10035118 -0.00099673122 0.2299569
0.10281411 0.024359368 0.19617973
-0.15764692 -0.064509138 0.25758892
-0.16041397 -0.076435864 0.2731716
-0.16044264 -0.077697158 0.27488008
-0.1602892 -0.080695614 0.27899298
-0.15401721 -0.085431024 0.2868748
-0.15573564 -0.088023171 0.29000488
-0.084438249 -0.050793603 0.25577271
0.068196177 -0.17596292 0.4610891
0.078705892 -0.14814241 0.42567328
0.087193191 -0.060913458 0.30900395
0.092655361 -0.055867195 0.30339772
0.092248991 -0.038663603 0.27990934
0.09652625 -0.012847051 0.24578568
0.093943194 -0.0044058822 0.23371242
0.096218646 -0.0042585656 0.23403534
0.095813856 -0.0019557066 0.2308107
0.097214326 -0.0022941753 0.23159301
0.098111853 -0.0019160137 0.23128527
0.098658577 -0.0010634661 0.23025146
0.10357212 0.024100676 0.19716126
0.10531707 0.023853138 0.19789909
-0.17029296 -0.067768037 0.26004195
-0.15897514 -0.065250382 0.25920865
-0.15931456 -0.071787953 0.26805651
-0.16092227 -0.07823433 0.27648818
-0.16613013 -0.086119339 0.28605589
-0.16632469 -0.08832325 0.2890203
-0.1579432 -0.08840555 0.2910611
-0.14437674 -0.082594499 0.2862483
-0.082645729 -0.047615387 0.25269276
-0.094446659 -0.07325083 0.28497919
0.043732453 -0.16692181 0.44466618
0.048988555 -0.16231401 0.43958429
0.070772611 -0.16817228 0.45259508
0.074187361 -0.1610956 0.44371843
0.088476196 -0.15448365 0.43797845
0.090597928 -0.15554999 0.43992269
0.084281608 -0.050461709 0.29498643
0.095342368 -0.0015887246 0.23080231
0.095917583 -0.0018599108 0.23130493
0.099244416 -0.0027057044 0.23322524
0.1008952 0.0013077296 0.22812513
0.12397927 -0.0069783777 0.24475004
0.11669327 0.0014517009 0.23156352
0.11755531 0.00092570111 0.23248009
0.1063668 0.024199162 0.19812909
-0.16457838 -0.066221014 0.26017153
-0.16399585 -0.066213906 0.26029593
-0.1621177 -0.067707643 0.26277584
-0.16137646 -0.067554355 0.26273632
-0.07597962 -0.040186137 0.2448771
0.041425664 -0.17530699 0.45713609
0.042994425 -0.17020063 0.45049706
0.05524084 -0.1526912 0.42931348
0.065989748 -0.1742871 0.46139297
0.067373976 -0.17670827 0.46503058
0.074164838 -0.14307694 0.42049012
0.091213837 -0.15404631 0.43945217
0.084670797 -0.051131308 0.29686418
0.089473352 -0.036581948 0.27802446
0.0921731 -0.037919514 0.28047949
0.095489532 -0.010034852 0.243017
0.09705916 -0.008616522 0.24143396
0.099323541 9.5337629e-05 0.23001264
0.10030636 -0.00019515678 0.23063704
0.11953466 0.00028550252 0.23440471
0.10526483 0.024310496 0.19818473
-0.17026812 -0.064619817 0.25758907
-0.095046282 -0.052184492 0.25779885
0.047730412 -0.16933928 0.4519352
0.054100338 -0.16585173 0.44860217
0.054965857 -0.1576709 0.43754137
0.059141502 -0.1608481 0.44287631
0.068938121 -0.17404138 0.46329185
0.090583742 -0.15477787 0.44176316
0.08709456 -0.058265634 0.30812082
0.090754613 -0.036827676 0.27945656
0.092583671 -0.037413895 0.28068468
0.097215116 -0.0085924789 0.24208196
0.099934906 -0.0054004937 0.23831487
0.10581295 0.024563145 0.19842704
-0.16895807 -0.065487206 0.26001757
-0.16485287 -0.065946698 0.26159862
-0.0955735 -0.056144334 0.26401731
-0.075695053 -0.03804858 0.24359052
-0.07459192 -0.037870497 0.24359885
0.068127997 -0.1749651 0.46594769
0.068445414 -0.17100011 0.46054122
0.085282609 -0.046656385 0.29258338
0.085716158 -0.046387799 0.292312
0.09001255 -0.041530795 0.28658992
0.091365919 -0.041033909 0.28621504
0.089307994 -0.035659306 0.27831343
0.090482324 -0.037030771 0.28047931
0.094637796 -0.0081907511 0.24158131
0.099220365 0.00072731823 0.2303129
0.10206489 0.0019989982 0.229211
-0.17039777 -0.06368655 0.25812504
-0.1647568 -0.063222423 0.25878182
-0.12708564 -0.084042042 0.29635614
-0.12619774 -0.083732769 0.29613158
-0.12450157 -0.082372993 0.29463592
-0.092018992 -0.05370909 0.26235259
-0.088061988 -0.060195282 0.27226499
0.037203152 -0.17375676 0.45872033
0.040673539 -0.18108381 0.46968731
0.048698843 -0.16987695 0.45598754
0.050851859 -0.17171763 0.45903811
0.052973326 -0.17304875 0.46137425
0.05478267 -0.17165132 0.45985228
0.055550672 -0.16991721 0.45762312
0.063086234 -0.17445712 0.46566001
0.072567478 -0.15671091 0.44322219
0.087933362 -0.15100224 0.43884411
0.085893303 -0.047812827 0.29519251
0.088520914 -0.041450985 0.28697085
0.089741588 -0.036268882 0.28006187
0.090796217 -0.036327071 0.28038582
0.095330149 -0.0083625913 0.24262886
0.10100821 0.00063765049 0.23144954
0.10438955 0.024897967 0.19856681
0.10470852 0.024879247 0.19866617
-0.18169965 -0.070019558 0.26527399
-0.093513146 -0.066126682 0.28019443
-0.090951592 -0.063146606 0.27663359
0.071455106 -0.15557061 0.44286352
0.091600537 -0.15401296 0.44534099
0.089673996 -0.041348308 0.28793371
0.093660668 -0.036612481 0.28225544
0.096374884 -0.0071717054 0.24186504
0.096746132 -0.0046918355 0.23849583
0.095034763 -0.0016093925 0.2338067
0.095333055 -0.00034657121 0.23211601
0.097906262 -0.00014326349 0.23242632
0.10101075 0.002873376 0.22893989
0.10199238 0.0025844239 0.22956888
0.1176596 0.0020921491 0.23386911
-0.12106168 -0.078342214 0.29188523
-0.11449803 -0.07382448 0.28708041
-0.091723859 -0.061135516 0.27458715
0.034266654 -0.15740222 0.43833035
0.084509492 -0.043944448 0.29121721
0.09078297 -0.035712309 0.28114974
0.10607037 -0.053831726 0.3100248
0.11021359 -0.057165124 0.31564394
0.095876008 -0.0080419034 0.24361852
0.097024426 -0.00084013119 0.23380952
0.097912863 9.592995e-05 0.23270513
0.10078278 0.0024311729 0.23010094
0.1023113 0.0019349903 0.23114768
0.10431783 -0.00013904646 0.23451221
0.11950652 -0.0026599132 0.24154426
0.11850509 0.0022651255 0.23442394
-0.18350329 -0.069977075 0.26674902
-0.09892036 -0.059393458 0.27141756
0.048995838 -0.16403998 0.45255792
0.051111963 -0.16571487 0.45539907
0.056341454 -0.16859329 0.46064964
0.061796553 -0.17228299 0.46709171
0.063565828 -0.17082338 0.46545017
0.088840544 -0.040102698 0.28768459
0.09569186 -0.0094338506 0.24619108
0.096154258 -0.0069435388 0.24280019
0.097123429 -0.0065379441 0.24245431
0.095477208 -0.0011830591 0.2345529
0.096459746 -0.0014618076 0.23517139
0.09834291 0.00028770417 0.23314911
0.098870158 9.8977238e-05 0.23353589
0.09952876 0.0018150099 0.23127779
0.11793531 -0.01665926 0.2614764
0.12417929 -0.010888778 0.25481355
-0.093920514 -0.054249287 0.26625174
-0.086295858 -0.051203273 0.26371762
-0.2867358 -0.43979824 0.76542544
-0.27642682 -0.43831551 0.76571655
0.032084726 -0.17718989 0.46874616
0.0519352 -0.16456376 0.45552683
0.088420644 -0.040047288 0.28835601
0.091165319 -0.040220484 0.28923431
0.09441711 -0.0085004792 0.24525218
0.095408186 -0.00083419681 0.23466961
0.099131763 0.0015660338 0.23214494
0.10095854 0.0022002012 0.23167278
0.11924341 -0.015184388 0.26041478
0.12156932 -0.010084778 0.2537604
0.11902685 0.002634868 0.2352348
0.10408252 0.025719814 0.19922577
-0.12459037 -0.077795267 0.2934126
-0.12446041 -0.07843715 0.29435149
-0.090931118 -0.052617148 0.26554137
-0.27478072 -0.4403581 0.77208781
0.033955615 -0.15505113 0.43946356
0.034824103 -0.15377246 0.43785363
0.052605778 -0.16213857 0.45381126
0.053649202 -0.16278739 0.45497108
0.06862478 -0.15990101 0.45434618
0.081600308 -0.039982617 0.28753859
0.096550733 2.3957342e-05 0.23434471
0.10057013 0.0019518919 0.2325439
0.10375531 0.00084192306 0.23485212
0.11401115 -0.010031059 0.25261945
0.12087777 -0.015791602 0.262364
0.11304006 -0.0027568191 0.24209438
0.11720113 0.0040155463 0.23346657
0.10337937 0.025435433 0.19994009
-0.091178328 -0.050127275 0.26284996
0.034747768 -0.15350226 0.43895954
0.036731482 -0.15543824 0.44217101
0.052197754 -0.15879089 0.4505156
0.058423176 -0.16231658 0.45696846
0.068874612 -0.16111337 0.45767549
0.10765253 -0.055412777 0.31635854
0.10914442 -0.057077959 0.31907111
0.11013517 -0.057798021 0.32032415
0.099840224 0.0021468513 0.23271206
0.11850488 -0.014239222 0.26032764
0.11182642 -0.0020075999 0.24139147
0.11458956 -0.0033574328 0.24394992
0.12074734 -0.0085679889 0.25278276
0.12286906 -0.01050999 0.25603473
0.12293124 -0.0091038197 0.25404972
0.12266876 -0.0064300001 0.25018746
0.10573587 0.026269928 0.19977707
-0.083921999 -0.046164945 0.25976944
0.047984112 -0.15521701 0.44598612
0.0529765 -0.15742774 0.45029759
0.076128095 -0.15399796 0.45075962
0.078383237 -0.14726157 0.44166428
0.079526484 -0.14822941 0.44331056
0.096970618 -0.0064973906 0.24500521
0.099598035 0.0027150288 0.23246118
0.11310306 -0.0027769506 0.24342753
0.10392356 0.026485302 0.19952694
-0.12743388 -0.08199808 0.30193964
-0.11646143 -0.073649421 0.29251269
-0.092132539 -0.050398201 0.26481596
0.047380611 -0.15892282 0.45269394
0.051414911 -0.15237243 0.44423836
0.059512261 -0.15641442 0.45190763
0.061786324 -0.15880023 0.45585442
0.070250601 -0.15771203 0.45625439
0.074254498 -0.15381996 0.45160243
0.078744903 -0.14856528 0.44510961
0.087829992 -0.14779191 0.44610482
0.087477446 -0.053232208 0.31047174
0.08728826 -0.037556216 0.28795627
0.090816841 -0.038285621 0.28981894
0.098757222 0.002027262 0.23386924
0.11494267 -0.0092720091 0.25381482
0.1165829 -0.0056296289 0.2489734
0.12341531 -0.0053079054 0.25009429
0.11395697 0.0066260286 0.23079668
0.11683092 0.0043656789 0.23470238
-0.092520818 -0.050405316 0.26564491
0.035492584 -0.15334325 0.44347453
0.087267354 -0.14529948 0.44389263
0.088734359 -0.14734657 0.44717926
0.090832442 -0.14822735 0.44893298
0.10641563 -0.18194477 0.50107628
0.16267024 -0.25530887 0.6197108
0.092310145 -0.033592314 0.28427017
0.099060178 0.0029052198 0.23329984
0.10048017 0.0030680969 0.23339437
0.10077924 0.0051356778 0.23048773
0.10366595 0.0034282729 0.23361406
0.11335425 -0.0015825741 0.24307172
0.12421404 -0.005896166 0.25179681
0.11683109 0.0038036183 0.23612429
0.1034994 0.025546767 0.20173827
0.10489224 0.026829779 0.20021439
0.10516521 0.026855899 0.20024005
-0.28167665 -0.43626481 0.78039801
-0.28027815 -0.43720615 0.78208268
-0.27698752 -0.43472552 0.77926028
0.046974357 -0.15539917 0.45064834
0.050927717 -0.14846145 0.44153762
0.052164957 -0.15100871 0.44550601
0.058312133 -0.15461522 0.45214388
0.063006371 -0.16022603 0.46134138
0.064275995 -0.16206358 0.4642919
0.075201347 -0.14450227 0.441443
0.088552564 -0.14630409 0.44714233
0.16255957 -0.25433749 0.62044275
0.16447385 -0.25246871 0.61818564
0.11562228 -0.064068504 0.33456111
0.097580105 -0.0047715567 0.24467486
0.099877521 -0.0074863434 0.24913123
0.098561242 0.00067852065 0.23702517
0.10108769 0.0054705739 0.23068488
0.11504459 -0.0037665069 0.24727102
0.12140754 -0.0053094774 0.25097629
0.1032306 0.025718156 0.20191729
0.10386574 0.027153451 0.19999012
0.10490702 0.027020698 0.20042345
-0.082248896 -0.042454019 0.25832114
0.044285867 -0.16915949 0.47155842
0.061445676 -0.15632066 0.45690593
0.069146365 -0.16169307 0.4664892
0.075942934 -0.14341997 0.44154599
0.076187223 -0.14041182 0.43723726
0.083330229 -0.1364456 0.4331381
0.091089785 -0.14841412 0.45230776
0.093257487 -0.14944768 0.45431048
0.10571352 -0.18224922 0.50480413
0.090884969 -0.037515074 0.29131389
0.090928048 -0.036512129 0.28986847
0.091181293 -0.032806829 0.28454971
0.099999696 0.0036909431 0.23362653
0.12345217 -0.0082554594 0.25640434
0.125358 -0.0034230985 0.24983329
-0.091395333 -0.048024692 0.26519465
0.034920458 -0.16423951 0.4638696
0.060603321 -0.15704118 0.45934042
0.06358581 -0.15754177 0.46076208
0.076907977 -0.14334719 0.44316852
0.078510627 -0.13842385 0.43636587
0.16425553 -0.25386655 0.62449932
0.091228813 -0.036821455 0.29125416
0.092279315 -0.032629855 0.28538969
0.096194416 -0.0078124702 0.25013253
0.097975269 -0.0079121888 0.25069112
0.097139925 -0.0054280162 0.24687712
0.098622471 -0.00053114071 0.24008502
0.09722735 0.0019289628 0.2361763
0.12179594 -0.0061203539 0.25360864
0.12171228 -0.0055541992 0.25276405
0.1177292 0.0036274716 0.23845936
0.10548966 0.027449723 0.20090292
-0.12128702 -0.072786748 0.29540321
-0.091868952 -0.048898593 0.26727927
0.034629658 -0.15986934 0.45904064
0.04556755 -0.16196755 0.46465111
0.050409883 -0.14440373 0.44007409
0.061412714 -0.15592831 0.45949352
0.0700109 -0.15033169 0.45330039
0.077192709 -0.1443298 0.44618571
0.079262331 -0.13748585 0.43665144
0.079408318 -0.13437296 0.43213019
0.096665367 -0.0076079145 0.25064045
0.09887892 -0.0064641982 0.24948113
0.10044323 -0.0074867904 0.25134063
0.097474039 0.0023801178 0.23621261
0.098644733 0.0039418451 0.23419921
0.099050835 0.0039166473 0.23433042
0.10161839 0.0055487566 0.2325384
0.10291304 0.02694409 0.20153099
0.10301746 0.02713608 0.20127417
0.10339577 0.027353903 0.20104329
-0.14225623 -0.065095238 0.28029674
-0.092444882 -0.047658518 0.26624987
-0.28195858 -0.42567819 0.77767015
0.031895634 -0.16660149 0.46991399
0.049423408 -0.15238331 0.45309481
0.062914073 -0.15314019 0.45734149
0.068975993 -0.15480834 0.46120122
0.079465523 -0.13802548 0.4389782
0.092271045 -0.14480239 0.45191166
0.10614887 -0.17526236 0.49989367
0.10853975 -0.17286831 0.4969314
0.087244958 -0.035681613 0.29040343
0.096235335 0.0032530613 0.23528256
0.099258572 0.0044009276 0.23429842
0.12382464 -0.00013529137 0.24667202
0.10501941 0.027737409 0.20134693
-0.14380527 -0.066152468 0.28252074
0.050085537 -0.14996436 0.45126224
0.051624998 -0.14701398 0.44726673
0.063480705 -0.15063225 0.45536169
0.064723574 -0.15235023 0.45818567
0.069120303 -0.15021689 0.45605993
0.10243097 -0.17283724 0.49718067
0.10566372 -0.17668585 0.50361091
0.1078538 -0.17354031 0.49947876
0.16247581 -0.25065953 0.62596631
0.089419559 -0.035477422 0.29148296
0.092101872 -0.031380072 0.28606114
0.094951794 -0.0070745796 0.25086117
0.097012907 0.0018996298 0.23809896
0.098507419 0.0046223365 0.2344292
0.099951878 0.0047545508 0.23456997
0.1202738 0.00045269355 0.24564193
0.11913598 0.0029323027 0.24171872
0.10564885 0.027919933 0.20171425
-0.14306816 -0.065449722 0.28268725
-0.12363596 -0.071537569 0.2962276
0.034161899 -0.15457101 0.45596027
0.044517387 -0.16254193 0.47017929
0.056675967 -0.14960061 0.45383319
0.068447605 -0.15685804 0.46732467
0.073375121 -0.14750512 0.45461333
0.089644402 -0.14130197 0.44920719
0.10546471 -0.17912553 0.5089277
0.15893842 -0.24775086 0.62304437
0.087810323 -0.035153225 0.29150766
0.095479503 -0.0063056201 0.25055042
0.097993493 -0.0068563893 0.25195119
0.098589763 0.0047648959 0.23487172
0.099187449 0.0049943142 0.23467059
-0.081836164 -0.038091317 0.25727409
0.045408472 -0.16178022 0.47091642
0.046950184 -0.15719308 0.46445069
0.0648949 -0.15306328 0.4624832
0.072663397 -0.14840883 0.45736656
0.074029185 -0.14585409 0.45388347
0.16360496 -0.24873994 0.62780714
0.08993727 -0.034837514 0.2924155
0.097219884 -0.0060787946 0.25132328
0.10041635 0.0061349533 0.23389569
0.10164285 0.0060416386 0.23431994
0.11687347 0.00291273 0.24252029
0.12082925 0.0008392483 0.24652575
0.1184195 0.0038015731 0.24155758
0.12126496 0.0016579628 0.24540931
0.10553537 0.028437652 0.20190506
-0.14661948 -0.066727221 0.28585172
-0.081702754 -0.037403427 0.25716034
0.013840053 -0.14876159 0.4457829
0.033213656 -0.15793954 0.46400705
0.043487299 -0.16313891 0.4741677
0.049864911 -0.14847387 0.45374307
0.067121148 -0.15453322 0.46681485
0.06788931 -0.1533815 0.46527326
0.086895376 -0.1372471 0.44559461
0.10762049 -0.171389 0.5014298
0.089017048 -0.029496156 0.28510702
0.1078161 -0.053680748 0.32561755
0.099607497 0.0054536425 0.23535785
0.099976361 0.0054771639 0.23540869
0.100015 0.0068899691 0.23330694
0.12344617 0.00051198527 0.24829283
-0.12300575 -0.070511937 0.2980907
-0.092306703 -0.045576163 0.2678344
-0.092100561 -0.046778098 0.26968589
-0.091618255 -0.046872742 0.26994014
0.044294976 -0.16133247 0.47333249
0.062534228 -0.15018506 0.46085906
0.086072057 -0.13723283 0.44691223
0.15402453 -0.24328251 0.62185013
0.11300242 -0.05712422 0.33300367
0.09577094 -0.0052955598 0.25123134
0.11747997 0.0036496557 0.2428699
0.11924349 0.0022033937 0.24545078
0.12269261 -0.00013784692 0.24976702
0.1040834 0.028796274 0.20202142
-0.092736781 -0.046360731 0.26985517
0.010762177 -0.14810185 0.44726685
0.043055832 -0.15897079 0.47117141
0.04401898 -0.15860888 0.47085097
0.054023497 -0.14399612 0.45116857
0.063344181 -0.14912963 0.46107575
0.064378932 -0.14956401 0.46197164
0.074806556 -0.14426202 0.4564153
0.086157694 -0.13380261 0.44330424
0.09069401 -0.13696092 0.44912022
0.10519746 -0.1728377 0.50655234
0.15429711 -0.24332197 0.62418926
0.15772101 -0.24189366 0.62283587
0.093692303 -0.029919177 0.2885552
0.11835243 0.0021316744 0.24601878
0.12080452 0.0012570731 0.24790831
0.12456852 -8.8538975e-05 0.25081313
-0.08006148 -0.034339599 0.25557566
0.011669066 -0.14568214 0.44542515
0.048597582 -0.14613581 0.45472726
0.051417347 -0.14587115 0.45498499
0.05686466 -0.14409377 0.45356676
0.062444787 -0.15548249 0.47209859
0.064252213 -0.14866479 0.4622058
0.066262029 -0.14914353 0.46339914
0.071613804 -0.14224902 0.45421699
0.090343967 -0.13535629 0.44815904
0.10611908 -0.16518974 0.49697396
0.086596563 -0.045699283 0.31164452
0.091936544 -0.029243797 0.28799522
0.093388423 -0.0037393346 0.24974881
0.099674731 0.0090051554 0.23193429
0.11990474 -0.0077866092 0.26205823
0.11801498 0.0031923056 0.24500749
0.10548668 0.029309385 0.20257258
0.10567996 0.029681377 0.20205489
-0.092152461 -0.044521481 0.26910245
0.013504826 -0.1431659 0.4436329
0.04951866 -0.14603187 0.45639464
0.068024367 -0.142929 0.45600078
0.1048125 -0.1741702 0.51205176
0.15310389 -0.2388462 0.62158394
0.10564956 -0.049372636 0.32264936
0.099934161 0.0065397248 0.23637044
0.10238872 0.0049327649 0.23938489
0.1051686 0.0019768551 0.24452451
0.11936739 -0.012187362 0.26935804
0.11843926 -0.003829699 0.2564441
0.11971225 0.0025246255 0.24708749
0.11771463 0.0058642067 0.24154755
0.10320291 0.029672639 0.201989
0.1040895 0.029689429 0.20217036
0.10493159 0.029470887 0.20269895
0.1058493 0.029735122 0.20251191
-0.082854509 -0.036491215 0.25997248
0.011482254 -0.14367943 0.44553989
0.069378912 -0.13997672 0.45341495
0.090902105 -0.1365266 0.45317876
0.10302611 -0.17128052 0.50903308
0.09057273 -0.033197768 0.29545867
0.091809064 -0.028391957 0.28841531
0.11195971 -0.053789131 0.33186933
0.093618676 -0.0035560131 0.25094712
0.094866067 -0.0041465946 0.25213963
0.097644627 0.0067433268 0.23617442
0.099100873 0.0068653449 0.23632845
0.11433971 -0.0074459091 0.26172203
0.11654435 -0.0090341121 0.26465997
0.11632723 -0.0066417828 0.26095939
0.11824624 -0.0052958131 0.25935429
0.11769612 -0.0041688345 0.25750637
0.12519489 -0.0038558617 0.25878054
0.11795805 0.0066875704 0.2410046
0.10343885 0.029939491 0.20213866
0.1047771 0.029819077 0.20263511
0.10514729 0.029757109 0.20281616
-0.11754939 -0.064676471 0.29595035
0.012369305 -0.14152816 0.44405982
0.013324585 -0.14089401 0.44331163
0.043899838 -0.14787753 0.46115717
0.055372525 -0.14010929 0.45193708
0.067447677 -0.13945647 0.45375928
0.084916413 -0.13455801 0.45033732
0.10322422 -0.17149441 0.51120615
0.10600723 -0.17016202 0.50981534
0.10655169 -0.16850764 0.5074079
0.10787463 -0.16936333 0.5090282
0.1562888 -0.23551925 0.62170064
0.087422147 -0.031924777 0.29367986
0.097481728 -0.0039374493 0.25315213
0.11579622 -0.0089243874 0.26507303
0.11595349 -0.0014147833 0.25360456
0.12246878 0.00018941611 0.25266945
-0.12741062 -0.070638284 0.30390504
-0.1255886 -0.070781171 0.30455077
0.044611264 -0.14552201 0.45934969
0.056305453 -0.14004068 0.45365113
0.06176785 -0.13895229 0.45325413
0.091457844 -0.13767116 0.45822671
0.10655351 -0.16804202 0.50848472
0.15731598 -0.23411174 0.62200928
0.087718681 -0.047012769 0.31786782
0.086227149 -0.040970117 0.30822226
0.089761272 -0.03202828 0.29529101
0.10981187 -0.05476331 0.33495954
0.11036476 -0.050250843 0.32814625
0.11627586 -0.03969343 0.31328541
0.098430708 0.0072347224 0.23690976
0.12372358 -0.017061047 0.28020573
0.11634569 -0.0066042319 0.26239169
0.11847536 -0.0080601349 0.2651298
0.11627574 0.00085183606 0.25090349
0.1172175 0.0067662485 0.24202411
-0.16392736 -0.055891745 0.27370709
0.051065303 -0.14344211 0.45929134
0.054113962 -0.13774635 0.45120418
0.058405951 -0.14142404 0.45789099
0.062435348 -0.13721894 0.45233679
0.087297767 -0.13243055 0.45075643
0.10343075 -0.16771728 0.50905275
0.15584618 -0.23303346 0.62223816
0.08947131 -0.032218292 0.29642817
0.11686189 -0.043823302 0.32076862
0.093926564 -0.004518304 0.25467187
0.094334394 -0.003184706 0.25270665
0.097086757 0.0077179521 0.23650524
0.097648427 0.0079920813 0.23621313
0.11792438 -0.0025906079 0.25730896
0.13600242 -0.0076764822 0.26939777
0.10278234 0.030607093 0.20247234
0.011058167 -0.1410075 0.44778806
0.042031478 -0.15014921 0.46922538
0.043504223 -0.14466345 0.46105829
0.044269066 -0.1425602 0.45797384
0.050834693 -0.14162518 0.45806026
0.055833541 -0.13667281 0.45154661
0.060807206 -0.13856214 0.45564264
0.10154983 -0.16448887 0.50541228
0.10492855 -0.16869865 0.51273525
0.087553516 -0.031285301 0.29544958
0.11356924 -0.034854785 0.30708006
0.097533673 0.0078935921 0.23699471
0.12013261 -0.0057730451 0.2634922
0.11747546 -0.0018012524 0.25670719
0.11914945 -0.0022299588 0.25776437
0.1159734 0.001739461 0.25086141
0.12481056 -0.0060239285 0.26497677
0.11657535 0.0079571977 0.24135457
0.12075219 0.0057197735 0.24580444
0.10562354 0.030702891 0.20349696
-0.10931462 -0.058201931 0.29218337
0.03858288 -0.15816905 0.48260954
0.048681535 -0.13954949 0.45596176
0.054719258 -0.1353538 0.45083845
0.060232323 -0.14076041 0.46055496
0.071902677 -0.13730775 0.45790938
0.073191851 -0.13894387 0.46076086
0.089733064 -0.028931208 0.29320928
0.1196028 -0.045501828 0.32602912
0.099217445 0.0079832636 0.23790954
0.099444821 0.010092579 0.23467612
0.10508302 0.030852478 0.20364811
-0.15874337 -0.051779747 0.27161819
-0.12598015 -0.069568992 0.30713761
-0.1230153 -0.066788785 0.30348209
0.055407792 -0.13362817 0.44990906
0.06286934 -0.13931565 0.46055859
0.065897785 -0.1402918 0.46279606
0.067668356 -0.1395631 0.46207094
0.069686905 -0.13540526 0.45603785
0.10434173 -0.16584344 0.51179481
0.091520593 -0.02601476 0.28997216
0.1117765 -0.042102113 0.31989619
0.11902373 -0.048944242 0.33230257
0.11889412 -0.047776371 0.33044454
0.094544366 -0.0026858561 0.25417393
0.09634617 -0.0027992055 0.2547738
0.11840793 0.0074204244 0.24395351
0.11881818 0.0074061751 0.24407214
0.10225745 0.031707898 0.20215991
0.10396555 0.031248979 0.20327859
0.10527208 0.031161923 0.20372108
-0.17514667 -0.062909231 0.28629056
-0.11728263 -0.060057655 0.29538351
-0.092777088 -0.040424667 0.27027774
-0.093367755 -0.041896932 0.27245286
0.050062716 -0.13550349 0.45321026
0.069465503 -0.1340646 0.45550063
0.085372463 -0.038762569 0.3094582
0.088472351 -0.030051425 0.29649529
0.089459762 -0.029881261 0.29645926
0.089911819 -0.025615275 0.28986123
0.11022212 -0.039208069 0.31598794
0.11670543 -0.047791958 0.33099905
0.1171813 -0.047578059 0.33077446
0.11865374 -0.047980182 0.331752
0.10460177 0.031427778 0.20365995
0.1052146 0.031420827 0.20381482
-0.1728195 -0.061398908 0.28556189
-0.12199177 -0.065115079 0.30335829
-0.092192724 -0.041274555 0.27272582
0.011693425 -0.13529061 0.44549718
0.014526471 -0.1339111 0.44398487
0.042230859 -0.14283673 0.46457553
0.044385608 -0.13515167 0.45295182
0.052442752 -0.13227291 0.45029998
0.062652677 -0.13229771 0.45273587
0.084450737 -0.13029429 0.45469058
0.091130108 -0.13416313 0.46236438
0.085938394 -0.037180513 0.30807859
0.088064373 -0.024748787 0.28895667
0.11116441 -0.049423687 0.33332351
0.1212938 -0.046965227 0.33182114
0.09964864 0.01197315 0.23371789
0.11845146 0.0079118535 0.24454154
0.10366797 0.031658996 0.20359121
-0.094673201 -0.042520434 0.27509916
-0.092825532 -0.049933687 0.2872836
0.015107438 -0.14352448 0.46098301
0.051717345 -0.13389613 0.45432082
0.060435101 -0.13000073 0.45019376
0.089958295 -0.13296647 0.46182948
0.10097116 -0.15684238 0.50226104
0.10257097 -0.15868221 0.50555301
0.090394825 -0.030043408 0.29879248
0.094152719 -0.026083633 0.29339865
0.10127601 -0.036915191 0.31224066
0.11354782 -0.041041292 0.32166311
0.11772719 -0.043884993 0.32715234
0.096639261 -0.0017791241 0.25545871
0.097678751 0.0099536031 0.23710574
0.09819153 0.0097956881 0.23747659
0.10037901 0.010890163 0.2362555
0.10392694 0.031905454 0.20377848
0.10527122 0.031786643 0.20428239
-0.12403354 -0.065569498 0.30588517
-0.090737134 -0.046513312 0.28337619
0.045041259 -0.13288526 0.45278189
0.049793616 -0.13356173 0.45497587
0.05401044 -0.13018359 0.45058927
0.05532771 -0.12656926 0.44514534
0.061489306 -0.12531392 0.4445951
0.087021187 -0.041511916 0.31719396
0.086449221 -0.037676647 0.31095454
0.086512014 -0.028411537 0.29622063
0.090739697 -0.024300121 0.29066914
0.096736073 -0.027547099 0.29724735
0.10191247 -0.020593122 0.28739417
0.11812593 -0.04320436 0.32719907
0.096490532 -0.00068229064 0.25442433
0.097026289 0.0095609389 0.23824441
0.10394633 0.0320956 0.20399868
-0.091911569 -0.040041156 0.27378243
-0.087395608 -0.043721899 0.28072917
0.040297549 -0.14459948 0.47203574
0.060740292 -0.1260912 0.44725388
0.061401725 -0.12465298 0.44511014
0.062171306 -0.12388168 0.44405821
0.064363599 -0.12114258 0.44019449
0.073801011 -0.12726034 0.45219469
0.088851124 -0.13159554 0.46266514
0.087455466 -0.040852025 0.31726333
0.090086654 -0.023742832 0.29052961
0.094516471 -0.026111409 0.29535806
0.11264962 -0.039819196 0.32153758
0.096178219 -0.0011889301 0.25590479
0.097009733 -0.0011430345 0.25602692
0.096727028 0.0096994527 0.23862642
0.099205449 0.0095266551 0.23948553
0.098881721 0.011815097 0.23575078
0.10319528 0.032434225 0.20380104
-0.12483203 -0.064534098 0.30635285
-0.11791109 -0.058612511 0.29847351
-0.086503312 -0.044304401 0.28289199
0.039328523 -0.14545472 0.47491306
0.045727927 -0.13096923 0.45316088
0.046859168 -0.13280854 0.45638019
0.06077173 -0.12612601 0.44892478
0.10693854 -0.15786323 0.51074725
0.086440533 -0.039570853 0.3159914
0.088403881 -0.023196377 0.29016256
0.099918887 -0.033488244 0.30939722
0.10262206 -0.034282431 0.31130856
0.11071821 -0.040127888 0.32259956
0.11121938 -0.039986961 0.32249096
0.12123975 0.0070121512 0.24938689
0.10185526 0.032761116 0.20348203
0.10273737 0.032781489 0.20365705
0.1036617 0.032494776 0.2043348
-0.12650999 -0.064379394 0.30687064
-0.093213543 -0.039241374 0.27417547
0.040683504 -0.13827886 0.46540928
0.047806345 -0.13303636 0.45863277
0.053742386 -0.12820776 0.45224419
0.057823401 -0.12475704 0.44764119
0.086454079 -0.12565599 0.45583281
0.089890197 -0.022763297 0.29072237
0.099867865 -0.033061638 0.30967829
0.11033319 -0.038191825 0.32041568
0.097429633 -0.014182933 0.27866161
0.094304144 -0.00042917579 0.25574699
0.096999213 0.010355555 0.23899065
0.099081755 0.01066865 0.23897621
0.11903238 0.0082768202 0.24753128
0.10523067 0.032656368 0.20496799
0.012737274 -0.13698752 0.45844284
0.03863145 -0.13721238 0.46490857
0.04377545 -0.13067164 0.45552775
0.050635941 -0.13309366 0.46106714
0.063235804 -0.12419794 0.44962934
0.084515736 -0.035922602 0.31167877
0.089855775 -0.022393167 0.29102585
0.10031211 -0.033507988 0.31149071
0.10527189 -0.032380968 0.3108342
0.096591279 -0.012563378 0.27669346
0.10230573 -0.016845189 0.28497466
0.099027485 0.010512911 0.23989473
0.099825114 0.010492682 0.24011552
0.10583723 0.0066463761 0.2477614
-0.08916831 -0.046340451 0.28867885
0.042329378 -0.13593282 0.46541229
0.043190859 -0.13485737 0.46386614
0.054167949 -0.1312198 0.46053791
0.060162272 -0.12754641 0.45597643
0.067352861 -0.12626286 0.4555842
0.069312066 -0.12677492 0.45687875
0.10986933 -0.15886863 0.51864421
0.10052745 -0.033547208 0.3125993
0.098494157 0.010944199 0.23975201
0.099397108 0.010794424 0.24020842
0.1032612 0.0094672702 0.24327834
0.10200976 0.033513691 0.20387052
0.10498057 0.033291414 0.20493251
-0.11764009 -0.057406798 0.30110103
-0.11709251 -0.057498179 0.30137932
-0.091459036 -0.037531972 0.27481055
0.038917482 -0.12953325 0.45586821
0.050606851 -0.13300993 0.46430588
0.055416867 -0.13330509 0.46592313
0.072418302 -0.12375705 0.45433655
0.083095178 -0.12579228 0.46018061
0.087208077 -0.12391485 0.45808405
0.087176517 -0.020624422 0.28933862
0.10685119 -0.031524792 0.31178811
0.095988661 0.00045407563 0.2569834
0.097214192 0.011336539 0.23949468
0.097870678 0.011005618 0.24019024
0.099563792 0.01271496 0.23779726
0.11385743 -0.0011512488 0.26382208
0.11061727 0.0059401505 0.25147289
0.11190407 0.0049667433 0.25336674
0.11648569 0.0036320426 0.25662833
0.11911976 0.0017277375 0.26036072
0.12044895 0.0043467656 0.25639576
0.10338289 0.03330595 0.20506057
-0.1225826 -0.059641972 0.30474409
-0.11857559 -0.059407964 0.3053064
-0.08739379 -0.040445812 0.2815564
0.033827752 -0.14099978 0.4751603
0.035333782 -0.1332352 0.46277633
0.040806316 -0.13016798 0.45903578
0.065077424 -0.12362783 0.45403591
0.07013464 -0.13022482 0.46605369
0.092456102 -0.021474846 0.29289347
0.10473056 -0.029558681 0.30905503
0.096772105 -0.015041031 0.28335634
0.096515059 -0.011547536 0.27756372
0.096094221 -0.008691445 0.27277815
0.096685663 0.011764459 0.23935495
0.10074271 0.011102274 0.24139945
0.11176756 0.0039877295 0.25567552
0.12127213 0.0033536628 0.25896001
0.11860426 0.010962401 0.24584602
0.12137428 0.010206636 0.24774019
0.12371482 0.0091266222 0.25006479
0.10406075 0.033452611 0.20551184
-0.16251943 -0.047647364 0.27670804
-0.091612339 -0.036675304 0.2753799
0.019659162 -0.20687459 0.58214045
0.034574069 -0.13784413 0.47190899
0.037877716 -0.12945087 0.45885798
0.041587327 -0.12873429 0.45855376
0.045669809 -0.13181202 0.4645901
0.078635737 -0.12217717 0.45650157
0.084008887 -0.11514993 0.44619069
0.10356076 -0.15427366 0.51528215
0.088707745 -0.020963319 0.29209056
0.10574308 -0.037522264 0.32340303
0.096153408 -0.0036651231 0.26534408
0.097103938 0.011982359 0.23978332
0.10113358 0.010895349 0.24252661
0.11635508 -0.0034394264 0.26974514
0.11189897 0.0031609647 0.25781554
0.11874047 0.010710832 0.24699025
0.11887711 0.010965642 0.24660283
0.12383187 0.0096719973 0.24990535
0.12347783 0.010380656 0.24865378
-0.12395795 -0.057849243 0.30379003
-0.11770517 -0.055711791 0.3017306
-0.091205046 -0.034262568 0.27249491
0.012303308 -0.13078271 0.45671755
0.022015255 -0.20432307 0.58073056
0.046442769 -0.13033445 0.46404684
0.059451427 -0.1283831 0.46389279
0.06360954 -0.13046916 0.4683283
0.069040969 -0.12444839 0.45964724
0.07130006 -0.12201743 0.45615789
0.077800393 -0.12218948 0.45797959
0.082900375 -0.12055619 0.45648211
0.084316 -0.11274354 0.4438858
0.086306199 -0.11650692 0.45058504
0.10517915 -0.1555482 0.51966447
0.10730469 -0.15236734 0.51490223
0.088765636 -0.020765729 0.29270482
0.092896909 -0.021635652 0.29512137
0.10292757 -0.02774255 0.30760026
0.097283483 -0.010647714 0.27797216
0.095411777 -0.0029542409 0.26479626
0.09466739 -0.00056926534 0.26067275
0.094240978 0.0013040528 0.2574715
0.095854178 0.0020714924 0.25658268
0.09658578 0.011911571 0.24046925
0.096845791 0.012074023 0.24026187
0.12408851 -0.0017023571 0.26950371
0.11818871 0.0062243789 0.25498942
0.11878614 0.0085482895 0.25128442
0.11982049 0.0099282935 0.24924481
0.11993407 0.010209188 0.24880673
0.1229576 0.011877242 0.24676082
0.10228966 0.034093518 0.20510426
-0.12559821 -0.060557112 0.30907065
-0.11771633 -0.055135354 0.30192232
0.021877088 -0.20234005 0.57965434
0.042139221 -0.1252117 0.45623255
0.060725376 -0.12463766 0.45967543
0.079435915 -0.11748467 0.45221126
0.092653036 -0.12493141 0.46771717
0.086221352 -0.024750762 0.29965928
0.087284207 -0.025798008 0.30165157
0.089567184 -0.026021406 0.30256322
0.10337882 -0.027242802 0.30786115
0.10465446 -0.027522475 0.30862793
0.11903645 -0.0012858883 0.26841557
0.11740315 0.0085715614 0.25164258
0.12001733 0.0096165538 0.25052398
0.12283839 0.010017484 0.25052488
0.10173792 0.034522489 0.20479666
-0.17553052 -0.056332164 0.29139003
0.016826343 -0.19867994 0.5746001
0.043911219 -0.12454645 0.45723411
0.046752948 -0.12491676 0.45852533
0.050695784 -0.12648928 0.46208444
0.078090295 -0.11900686 0.45607662
0.083613053 -0.11264835 0.44676754
0.085626006 -0.11342336 0.44853812
0.087459505 -0.11656694 0.45422068
0.10546456 -0.14899623 0.51262915
0.089287385 -0.025165565 0.30204451
0.087196693 -0.01915279 0.29151013
0.088024691 -0.019738197 0.29268375
0.093699992 -0.022428103 0.29851845
0.096079811 -0.0027012751 0.26614475
0.094566002 0.00013497472 0.26105076
0.096622735 0.012376621 0.24109827
0.096714154 0.012747064 0.24050149
0.11879182 -0.0063906088 0.27768159
0.11487083 0.00017053634 0.2657983
0.1189065 -0.0023362562 0.27093923
0.11492768 0.004442174 0.25867972
0.12029554 0.008822877 0.25263608
0.12133986 0.010179467 0.2506184
0.12353638 0.010397092 0.25077504
0.1229976 0.011646897 0.24856068
0.12191905 0.013012178 0.24602585
0.12089007 0.014321446 0.24359624
0.12143397 0.014178421 0.24396373
0.10113731 0.034995452 0.20440142
0.10382023 0.034234408 0.20630722
-0.091290861 -0.034863129 0.27650505
0.024046846 -0.19656999 0.57501185
0.060336266 -0.12206668 0.45866618
0.063964464 -0.12158997 0.45872617
0.078050122 -0.11850993 0.45689783
0.090620488 -0.12054098 0.4632819
0.088914424 -0.025175616 0.30294946
0.090860173 -0.019859359 0.2944949
0.098965034 -0.022902511 0.3015185
0.095501989 -0.0022320747 0.26603359
0.096891344 0.0020643473 0.2591576
0.099962875 0.012853872 0.24179117
0.12177867 0.0080555864 0.25500596
0.12175627 0.0084796809 0.25428942
0.12271686 0.011061665 0.25018695
0.1219084 0.012927026 0.24686727
-0.17362085 -0.054135039 0.29047519
-0.092372373 -0.034315817 0.2763522
0.025152702 -0.19671895 0.57776463
0.039328493 -0.12667215 0.46313846
0.043617249 -0.12213647 0.45651501
0.047149345 -0.12051152 0.45461518
0.065435991 -0.11940852 0.4570924
0.083371669 -0.11745766 0.45805821
0.089821547 -0.024517044 0.303038
0.091769069 -0.019306943 0.29472369
0.099893317 -0.03069561 0.31583282
0.10353324 -0.034977071 0.32390743
0.10140881 -0.02392745 0.30479175
0.10132512 -0.021213934 0.30020124
0.096395373 0.012684569 0.24193397
0.12041162 -0.0023798235 0.27300158
0.10717183 0.028014803 0.21866646
0.10376313 0.034703612 0.20659173
0.10473484 0.034654863 0.20690431
0.017668407 -0.19427277 0.57410634
0.056637086 -0.12198095 0.46104419
0.05870631 -0.12320101 0.46359929
0.059749566 -0.12381679 0.46488851
0.065421954 -0.11910997 0.45827088
0.072646238 -0.11835296 0.45870379
0.075643256 -0.11553709 0.45465082
0.081360728 -0.11987741 0.46335027
0.085417852 -0.11464189 0.45545501
0.10212599 -0.03221871 0.31997135
0.094027981 0.0017436258 0.2605916
0.11957905 0.0079170167 0.25620839
0.11903693 0.0092794187 0.2537747
0.12009953 0.010246024 0.2523914
0.12053573 0.010611445 0.25187665
0.102202 0.035212796 0.20590584
0.1029049 0.035129547 0.2062135
0.10381955 0.034864984 0.20687808
-0.170378 -0.050852701 0.28799921
-0.12051353 -0.056119174 0.30878559
-0.11793503 -0.054609798 0.30683273
-0.092612475 -0.032891661 0.2759375
-0.026649155 -0.18804307 0.55525041
-0.025224652 -0.18657047 0.55308628
0.018762074 -0.19257258 0.57372761
0.079787195 -0.12063146 0.46596205
0.10331674 -0.14687614 0.51614618
0.088808194 -0.018996723 0.29539213
0.095263705 -0.001029931 0.26639295
0.094851777 0.0033179037 0.25890666
0.099757656 0.013869833 0.24213985
0.11780773 0.0065852851 0.25880373
0.1193441 0.0092557333 0.25463057
0.11667359 0.013065416 0.24752247
0.11865602 0.013823431 0.24670516
0.10561088 0.030465359 0.21532807
0.10192789 0.035395853 0.20607522
-0.11894661 -0.055180378 0.30875659
-0.016909372 -0.18456757 0.55384338
0.018638473 -0.19045676 0.57233977
0.025964957 -0.19286759 0.5781951
0.099324986 -0.14368936 0.51168084
0.10061653 -0.14449087 0.51335561
0.084437683 -0.029464431 0.31317654
0.10129808 -0.021026686 0.30277956
0.098127082 -0.0062374026 0.27678287
0.094271287 4.0527433e-05 0.2651512
0.095010445 -0.00037926063 0.26604328
0.11947155 0.0069049448 0.25942087
0.11978938 0.0078567825 0.25787169
0.11787118 0.012947802 0.2487264
0.12093663 0.014897201 0.24612716
0.10218753 0.035643212 0.20626231
0.10447474 0.035248131 0.20748007
-0.16936843 -0.048920676 0.28724048
-0.12850799 -0.058827758 0.31393889
-0.11916582 -0.054832488 0.30931017
-0.092227638 -0.033400625 0.2789695
-0.022209462 -0.18659386 0.55825865
0.022144672 -0.18849032 0.57205367
0.089960232 -0.12248556 0.4750115
0.087208807 -0.017346084 0.29409942
0.088502854 -0.017815106 0.29521114
0.099295795 -0.024503827 0.30924445
0.11918928 0.0087376386 0.25698203
0.11925806 0.0090832114 0.25640577
0.10860351 0.028245721 0.22101972
0.10279466 0.035590202 0.20704705
-0.12446578 -0.055887908 0.31107432
-0.089720532 -0.039025724 0.29030097
-0.022032768 -0.18356593 0.55531669
0.013303701 -0.19704877 0.58694148
0.088906765 -0.022219427 0.30385143
0.08908537 -0.017615341 0.29596508
0.090198606 -0.017737135 0.29643956
0.098415941 -0.020909585 0.30385777
0.099615514 -0.021989062 0.30600202
0.099289805 -0.020582221 0.30350178
0.10323118 -0.013782158 0.29272899
0.096048728 0.0042923726 0.25989401
0.096370965 0.004442919 0.25971141
0.099219725 0.014816649 0.24252456
0.11887425 0.0080782771 0.25880426
0.11947526 0.011564374 0.25294363
0.12051216 0.012889531 0.25090829
0.1205786 0.014316302 0.24846701
0.11126471 0.025804646 0.22646719
0.10285683 0.035746876 0.20734553
0.10377173 0.035486788 0.20801102
0.1040521 0.035509098 0.20803934
0.10447259 0.035672117 0.20785861
-0.169679 -0.048560381 0.28885868
-0.092913806 -0.033188656 0.28054267
-0.093574733 -0.041960277 0.2955586
-0.020823997 -0.18156622 0.5543673
0.02066531 -0.19122951 0.5809592
0.030599281 -0.19409932 0.58828819
0.14490868 -0.20098962 0.62741876
0.14637356 -0.20141323 0.62849998
0.092037573 -0.017891303 0.29810917
0.10167553 -0.011927649 0.29008773
0.096991763 0.0038850494 0.26161984
0.099069029 0.015250675 0.24245431
0.11756726 0.0071047544 0.26094854
0.11811538 0.00784906 0.25979149
0.12082537 0.015803747 0.24667652
-0.092968285 -0.030723616 0.27730691
-0.0096036084 -0.17417635 0.54642141
0.019261774 -0.19720747 0.59331524
0.030429158 -0.19200377 0.58693361
0.093406111 0.0055075623 0.25875208
0.099060744 0.015062198 0.24349755
0.11813135 0.0081196651 0.26010349
0.11512345 0.02286334 0.23376915
0.10262676 0.03610298 0.20778781
0.10399394 0.035981663 0.20832416
-0.16528137 -0.04934787 0.29362208
0.024124339 -0.19289832 0.58931839
0.085621119 -0.020143293 0.30246302
0.086686909 -0.021168083 0.30450585
0.086919889 -0.015581913 0.29481155
0.088572651 -0.016700655 0.29715818
0.10085897 -0.020371057 0.30649319
0.10164881 -0.012738764 0.29336056
0.094714507 0.0051718839 0.2604475
0.12052853 0.013323009 0.2523748
0.12057759 0.013654031 0.25180879
0.12069485 0.016810596 0.24632734
0.10345657 0.034253515 0.21177414
0.10392262 0.035993926 0.20884754
-0.17946739 -0.053245753 0.29826039
0.08565788 -0.02890297 0.31883219
0.089314818 -0.020691097 0.30530754
0.10151166 -0.013733417 0.29601932
0.10181168 -0.011909239 0.29289272
0.093389392 0.0060820505 0.25934136
0.095416859 0.0056752414 0.26053822
0.097155243 0.015512295 0.24370684
0.098271742 0.015585378 0.24384509
0.1183183 0.0089324787 0.26029116
0.11902665 0.0090715289 0.26021647
0.12025306 0.0091158077 0.26043141
0.12044352 0.0144266 0.25116605
0.10760684 0.030276464 0.22031595
0.10449247 0.03650187 0.20865871
-0.17187411 -0.04761871 0.29138884
-0.16371219 -0.047429614 0.29300445
-0.094396919 -0.031525962 0.28154477
-0.0083806477 -0.16725238 0.54110539
0.025098335 -0.19090356 0.5907495
0.08522895 -0.02768147 0.31765717
0.087391824 -0.020844869 0.30613387
0.088833168 -0.0204845 0.3058432
0.088342458 -0.015659459 0.29722899
0.10062611 -0.021943606 0.31122825
0.094963342 0.0059807375 0.26069921
0.096670941 0.015879996 0.24367349
0.11692119 0.0093451068 0.2600165
0.12117888 0.009737473 0.260342
0.12074223 0.010962851 0.2580798
0.11991934 0.014814422 0.25110042
-0.11764292 -0.048939139 0.3078714
-0.093963474 -0.030483574 0.28088009
-0.092439517 -0.029983699 0.28035977
0.023708396 -0.1889111 0.58925664
0.086718857 -0.11197846 0.46821395
0.085259214 -0.019551083 0.30435798
0.10048807 -0.015469313 0.30077541
0.096707016 0.016561233 0.24320909
0.099107817 0.016499594 0.24389164
0.11665873 0.0090368427 0.26128647
0.1082519 0.029582079 0.22293292
0.10463794 0.037059616 0.20884143
-0.11724162 -0.050021455 0.31110892
-0.09223865 -0.029220343 0.28012213
0.085416734 -0.019544668 0.3054027
0.090003222 -0.015190631 0.2987619
0.1013523 -0.016460389 0.30373156
0.099123314 -0.010729522 0.29301485
0.10142642 -0.011125207 0.29426861
0.10276724 -0.0094134435 0.29154742
0.096800163 0.0058312751 0.26303008
0.096662715 0.016407069 0.24420369
0.09946388 0.016351189 0.24497277
0.11957607 0.010225855 0.26066613
0.10510148 0.032575242 0.21748963
0.1041058 0.035105348 0.21275555
-0.1723624 -0.046820305 0.29344168
0.098156467 -0.012838498 0.2975049
0.10123186 -0.010519646 0.29410151
0.095372066 0.0068525746 0.26168808
0.097909436 0.016588241 0.24491607
0.099484771 0.016588498 0.24529251
0.1149869 0.0095773116 0.26151711
0.1173871 0.010163732 0.26104492
0.11803854 0.010776516 0.2601068
0.10357518 0.034412064 0.21445432
0.10224667 0.037433106 0.20874357
-0.1193639 -0.049076661 0.31138551
-0.092085093 -0.027995199 0.28011337
-0.087443531 -0.026351064 0.27827647
-0.021637175 -0.17253302 0.55616939
0.085526511 -0.030669041 0.32743517
0.087644696 -0.019013651 0.30704188
0.088267609 -0.019160002 0.30745319
0.086365238 -0.012719356 0.29544845
0.091691583 -0.014747739 0.30036092
0.09976095 -0.016637541 0.30568177
0.099571779 -0.013886303 0.30070302
0.097912893 -0.0097986758 0.2929759
0.10051964 -0.010648035 0.29512292
0.096179128 0.016563855 0.24528693
0.098052472 0.016682342 0.24552295
0.11609444 0.0096071586 0.26253009
0.11750887 0.009905491 0.26233387
0.10382038 0.035515044 0.21313293
0.08599259 -0.027622528 0.32318938
0.096898586 -0.016883366 0.3064571
0.10004148 -0.017584667 0.30847359
0.10033269 -0.013915226 0.30193326
0.099749804 -0.0099442601 0.2946403
0.091643572 0.0089554936 0.25865203
0.096615598 0.017701432 0.24408859
0.09735097 0.017756686 0.24416506
0.11426143 0.0082232431 0.26539069
0.11376093 0.0092023537 0.26350707
0.10234417 0.036188073 0.21215957
-0.12539475 -0.050966576 0.31585625
-0.11926475 -0.048476033 0.3128193
-0.11880474 -0.04867056 0.31328157
0.098821223 0.017229903 0.24621294
0.099761173 0.017060772 0.24674423
0.11414108 0.0086419135 0.26542753
0.11371604 0.0095391497 0.26370203
0.11704572 0.011364553 0.26119721
-0.13049486 -0.048989557 0.31231445
-0.11852182 -0.047760546 0.31295338
-0.094696194 -0.02755551 0.28194022
-0.093719214 -0.028354406 0.28362691
0.010586418 -0.18056926 0.58536983
0.082240179 -0.026410185 0.32231882
0.085956812 -0.017952047 0.30783471
0.088890865 -0.013503723 0.30045214
0.090451434 -0.01347024 0.30076575
0.091042235 -0.01268442 0.29947877
0.094669476 -0.015212156 0.30494452
0.10044986 -0.0095768571 0.29608741
0.095743135 0.018323615 0.24423751
0.096978232 0.017796766 0.24549162
0.1012951 0.036984079 0.21164693
0.10411741 0.038257677 0.21000886
-0.12272875 0.0061972924 0.21466212
0.083271191 -0.027048454 0.32484969
0.085396588 -0.017604388 0.30811316
0.089529201 -0.013381556 0.30139372
0.09563373 -0.011339128 0.29912984
0.10170445 -0.013391301 0.30433536
0.11590853 0.01008451 0.26487398
0.11838312 0.011046637 0.26371127
0.10417843 0.0386713 0.20985049
-0.17093034 -0.042368159 0.29299146
-0.16910146 -0.041888058 0.29255018
-0.13628553 -0.050397843 0.31604967
0.085448012 -0.016344965 0.30686703
0.088964656 -0.012999594 0.3015745
0.095058113 -0.01345136 0.30386806
0.095641464 0.018034734 0.24624254
0.10291764 0.03736572 0.21252568
0.10269533 0.039094463 0.20930058
0.10418226 0.039128497 0.20959565
-0.17273736 -0.043210477 0.2953307
-0.16968921 -0.041793942 0.29345307
-0.0113438 -0.16291298 0.5547744
0.018751901 -0.18230405 0.59775269
0.071172483 -0.10620101 0.4700959
0.1407305 -0.18752034 0.63670635
0.14155367 -0.18637179 0.63478756
0.082063451 -0.023816563 0.3208724
0.085373878 -0.015886314 0.30705258
0.086244985 -0.016506076 0.30840445
0.088047504 -0.016815536 0.30940831
0.093723729 -0.01267989 0.30315122
0.096919402 -0.011068679 0.30095023
0.097526655 -0.011197954 0.30133471
0.10127333 -0.012086824 0.30387411
0.10142577 -0.010771051 0.30148566
0.091106385 0.010476712 0.25984177
0.094732553 0.0085109696 0.26433682
0.096886039 0.018685549 0.2461022
0.099326253 0.018602081 0.24684279
0.11184195 0.010400776 0.26496923
0.11658707 0.011283975 0.26448268
0.11404242 0.015846778 0.25546083
0.10262407 0.038860045 0.21029878
0.10381435 0.039143037 0.2100632
