# .PCD v0.7 - Point Cloud Data file format
VERSION 0.7
FIELDS x y z
SIZE 4 4 4
TYPE F F F
COUNT 1 1 1
WIDTH 1354
HEIGHT 1
VIEWPOINT 0 0 0 1 0 0 0
POINTS 1354
DATA ascii
0.11154301 -0.082476355 0.21113844
0.1047093 -0.061697729 0.15794547
0.10368174 -0.060507055 0.1548973
0.097694039 -0.055592552 0.14231655
0.10352403 -0.05282459 0.13523032
0.10457755 -0.052918877 0.13547185
0.10596798 -0.053035159 0.13576946
-0.3010093 -0.22358356 0.5752337
-0.28549397 -0.22108953 0.56881696
-0.20347612 -0.2178842 0.56057012
-0.18692276 -0.21402103 0.55063152
0.10674712 -0.099974394 0.25721353
0.10834272 -0.095562965 0.24586371
0.10752368 -0.080741979 0.20773245
0.10775496 -0.080582954 0.20732325
0.11135797 -0.081929788 0.21078822
0.10853638 -0.077350251 0.19900626
0.10994881 -0.066169165 0.17023978
-0.30974701 -0.21488002 0.55562085
-0.2027109 -0.21725819 0.56176996
0.10447717 -0.09350653 0.24178226
0.1155052 -0.092406802 0.23893903
0.11414518 -0.090916827 0.23508614
0.10808642 -0.081093416 0.20968561
0.10814752 -0.080804229 0.20893779
0.11203539 -0.068446763 0.17698479
0.10368519 -0.052526742 0.13582014
-0.1914665 -0.2212085 0.57487494
-0.17401752 -0.23065262 0.59941798
0.2596232 -0.3091895 0.80351877
0.10751707 -0.099177279 0.25774124
0.10179811 -0.092480406 0.24033758
0.1082029 -0.080108307 0.20818529
0.11302853 -0.069409363 0.18038069
0.10363078 -0.060150407 0.1563185
-0.29780838 -0.21612078 0.56450546
-0.20340092 -0.22104292 0.57736158
0.10504848 -0.092614368 0.24190779
0.11628655 -0.094178535 0.24599338
0.11129104 -0.087367557 0.22820333
0.1091235 -0.082415245 0.21526794
0.1094727 -0.079656228 0.20806155
0.11534791 -0.082920767 0.21658805
0.10983524 -0.068509705 0.17894678
0.11080427 -0.067931369 0.17743637
0.10589852 -0.052087788 0.13605298
-0.30394796 -0.21857069 0.57381821
-0.2967892 -0.21515919 0.56486207
-0.20298068 -0.20810312 0.54633713
-0.1893329 -0.21378894 0.56126505
0.11251535 -0.091073297 0.23909687
0.10795631 -0.078472733 0.20601627
0.10738873 -0.066876449 0.17557228
0.10926707 -0.06552738 0.17203054
0.10979821 -0.065405712 0.17171139
0.11059472 -0.065660715 0.17238063
-0.31310335 -0.21785174 0.57486528
-0.20501567 -0.21278888 0.56150538
-0.18905228 -0.20713289 0.54658079
-0.18669116 -0.20972994 0.5534336
-0.18569191 -0.21828911 0.57601923
0.10307499 -0.090845704 0.23972303
0.11445643 -0.090526931 0.23888199
0.10802973 -0.083579682 0.22054948
0.10378839 -0.076940887 0.20303108
0.10694251 -0.06625855 0.1748427
0.10848752 -0.066289246 0.17492376
0.11213289 -0.066014186 0.1741979
-0.21110897 -0.21546632 0.57150304
-0.19530813 -0.20650853 0.54774356
0.11381932 -0.092447884 0.24520896
0.11209258 -0.088202342 0.23394832
0.10673105 -0.082874469 0.21981658
0.10151393 -0.074868642 0.19858187
0.10990558 -0.066353805 0.17599721
0.1103031 -0.066366717 0.17603119
-0.20173204 -0.20723204 0.55251193
0.10027931 -0.08835315 0.23556314
0.10345638 -0.090246238 0.2406102
0.11399633 -0.091273576 0.2433493
0.11285433 -0.088739663 0.23659351
0.10984038 -0.085602656 0.22822942
0.10675599 -0.081039414 0.21606354
0.10549933 -0.079059497 0.21078463
0.10902746 -0.064382449 0.17165339
-0.19920114 -0.20970951 0.56203043
0.1010342 -0.088556848 0.23733635
0.10379403 -0.090071373 0.24139528
0.11478167 -0.091426007 0.24502571
0.10604888 -0.064693518 0.17338172
-0.19599849 -0.2040323 0.54967976
-0.19916709 -0.21112739 0.56879431
-0.18463895 -0.20316759 0.54734999
-0.18085377 -0.2055133 0.55366951
-0.18044776 -0.21056297 0.56727409
0.10620119 -0.090333 0.24336448
0.11617905 -0.096457824 0.25986549
0.1183954 -0.097830236 0.26356289
0.11428785 -0.089739338 0.24176542
0.11413369 -0.089214936 0.2403525
0.11260407 -0.087624907 0.23606887
0.10486447 -0.080165341 0.21597213
0.10520636 -0.050447524 0.13591018
0.10329895 -0.089150719 0.24144417
0.10617122 -0.089834459 0.24329583
0.10690709 -0.090016164 0.24378815
0.11775213 -0.098190613 0.26592663
0.11466401 -0.094701283 0.25647664
0.11442447 -0.089781977 0.24315374
0.11428625 -0.089268073 0.24176207
0.10583496 -0.080839343 0.21893467
0.1069859 -0.064360112 0.17430465
0.10874936 -0.064744517 0.17534593
0.1036482 -0.049714655 0.13464075
0.10575324 -0.050167143 0.1358664
-0.18408637 -0.20432128 0.55628568
0.11711802 -0.096218735 0.26196575
0.10783679 -0.08266563 0.22506595
0.10605473 -0.063909076 0.17399931
-0.079472885 -0.095113374 0.26033437
-0.074295677 -0.09707313 0.26569849
0.10265919 -0.088105671 0.24115348
0.11341798 -0.09224467 0.25248244
0.10402361 -0.078272901 0.21424033
0.10435976 -0.063219845 0.17303881
0.10593336 -0.063498013 0.17380017
0.10907041 -0.064251877 0.17586353
0.10383234 -0.049415667 0.13525544
-0.18127318 -0.20300221 0.55860853
-0.080065958 -0.095313206 0.26227716
0.11493148 -0.10168706 0.27981642
0.10375621 -0.088130809 0.24251284
0.11347426 -0.090084799 0.24789006
0.10287245 -0.062207703 0.17117928
-0.19963339 -0.2035937 0.56325012
-0.18932013 -0.20546614 0.5684306
-0.088646494 -0.10423344 0.28836614
-0.072328597 -0.090055354 0.24914208
0.1128359 -0.099298842 0.27471441
0.11187097 -0.097435579 0.2695598
0.10425749 -0.087211363 0.24127391
0.11079388 -0.088310927 0.244316
0.11188616 -0.088763244 0.2455672
0.11119596 -0.085024878 0.2352248
0.10732152 -0.063202135 0.17485139
0.10476233 -0.049054395 0.13571118
0.1054301 -0.049230784 0.13619922
-0.072253332 -0.08947774 0.24888273
0.11236046 -0.098862991 0.27498773
0.11153345 -0.097119331 0.27013761
0.10482553 -0.085522763 0.23788187
0.10687824 -0.085946947 0.23906182
0.11155592 -0.086403884 0.24033289
0.107754 -0.062896445 0.17494681
-0.18872222 -0.2026138 0.56663525
-0.090212144 -0.10278917 0.28746322
0.099802181 -0.084680624 0.23682041
0.11204086 -0.086310223 0.24137764
0.10003677 -0.067166053 0.1878387
0.10324113 -0.068492822 0.19154921
0.10572006 -0.048700612 0.13619757
0.10590523 -0.0486519 0.13606168
-0.091033228 -0.10246284 0.28811741
-0.08824376 -0.10138054 0.28507379
-0.080864601 -0.094203874 0.26489347
-0.071292803 -0.087981105 0.24739538
-0.068687737 -0.088030718 0.24753527
0.10097553 -0.083933294 0.2360135
0.10915221 -0.085196987 0.2395667
0.11053297 -0.075321235 0.21179746
0.10005456 -0.066545598 0.18712112
0.10803567 -0.062378738 0.17540407
-0.070468962 -0.087791182 0.2482186
0.10873748 -0.097172774 0.27474394
0.098495625 -0.081833154 0.23137288
0.10934054 -0.086088911 0.24340564
0.10325432 -0.067488998 0.190817
0.10465035 -0.0615898 0.17413796
-0.068236142 -0.086495653 0.24590775
0.10885755 -0.096225604 0.2735697
0.11090711 -0.09497641 0.27001828
0.10659961 -0.085503571 0.2430869
0.11497448 -0.079443276 0.22585781
0.10571307 -0.061220072 0.17404917
-0.088585421 -0.097413413 0.2784861
-0.073549829 -0.087972648 0.25149715
-0.07148318 -0.087417409 0.24990965
-0.072637983 -0.093732394 0.26796293
0.11037114 -0.098613307 0.28191653
0.11338892 -0.076627739 0.21906392
0.10078692 -0.066197962 0.18924719
-0.076228164 -0.088724121 0.25506291
0.10746288 -0.093440659 0.26862195
0.10123952 -0.06639199 0.19086298
0.10052982 -0.065662026 0.18876453
0.10130797 -0.065905742 0.18946499
0.10567333 -0.047355577 0.1361375
0.10617636 -0.047320396 0.13603641
-0.10241187 -0.1063631 0.30748981
-0.092203669 -0.09959586 0.28792629
0.12008284 -0.08480157 0.24515662
0.11912341 -0.083758488 0.24214119
0.11409242 -0.078850858 0.22795336
0.10370436 -0.059904069 0.17317954
0.10533113 -0.060412522 0.17464949
0.10751061 -0.060588948 0.17515936
0.10412815 -0.046919107 0.13564074
0.10608681 -0.047016263 0.13592164
-0.10071308 -0.10401072 0.3023892
-0.072115682 -0.087373152 0.25401899
0.10852294 -0.095868543 0.27871728
0.1079113 -0.09429305 0.27413672
0.10006364 -0.064887278 0.18864618
0.1016217 -0.065370768 0.19005178
0.10478895 -0.06608738 0.19213504
0.10326975 -0.059530266 0.17307155
0.10507432 -0.046818674 0.13611527
-0.09391702 -0.10030608 0.29327646
-0.071428798 -0.086704634 0.25350815
0.10810678 -0.094961017 0.27764851
0.1066567 -0.092169434 0.26948649
0.10627695 -0.09037713 0.26424593
0.10817394 -0.091022819 0.2661339
0.10692565 -0.082990132 0.24264774
0.11323865 -0.077712901 0.22721797
0.10268016 -0.065416858 0.19126679
0.10445809 -0.06576401 0.19228211
0.10500815 -0.064834937 0.18956552
0.10567544 -0.046562392 0.13614026
-0.075741835 -0.087437712 0.25711313
-0.072608635 -0.0863261 0.25384432
-0.069577523 -0.085270904 0.25074184
-0.068985999 -0.085202232 0.25053996
0.10658247 -0.090603128 0.26642129
0.10922809 -0.073277302 0.21547426
0.1069913 -0.070586227 0.20756106
0.10582346 -0.059460696 0.17484629
0.10540322 -0.04630601 0.13616443
-0.12803304 -0.095619932 0.28279042
-0.1281561 -0.10196972 0.3015697
-0.13548951 -0.10945625 0.32371035
-0.098518066 -0.098751031 0.29205024
-0.071379192 -0.085659213 0.25333208
0.10632318 -0.090836555 0.26864389
0.12260616 -0.08691217 0.25703773
0.1149499 -0.079699315 0.23570581
0.1116475 -0.076075889 0.22499013
0.1068353 -0.070372105 0.20812134
0.1023318 -0.064711235 0.19137989
0.10479653 -0.058963463 0.17438102
-0.14259671 -0.088713452 0.26388189
-0.14762518 -0.092944667 0.27646816
0.10651637 -0.090969652 0.2705932
0.10718545 -0.081773013 0.24323744
0.12042233 -0.084873274 0.25245956
0.118108 -0.08213798 0.24432318
0.10546618 -0.058582339 0.17425576
0.10628332 -0.058622111 0.17437454
0.10534434 -0.045750946 0.13608833
-0.12849997 -0.097630374 0.29209512
-0.13125004 -0.10069822 0.30127376
-0.13429044 -0.10947621 0.32753575
-0.1150329 -0.10718749 0.32068843
-0.10197087 -0.1004004 0.30038273
-0.087981537 -0.093706332 0.2803553
-0.086023226 -0.092885941 0.2779004
-0.0841619 -0.092148587 0.27569467
-0.074903153 -0.084374212 0.2524347
-0.071013637 -0.084240466 0.2520346
-0.06747552 -0.085908383 0.25702477
0.10671534 -0.088686287 0.26533583
0.10336325 -0.08034946 0.24039352
0.10371941 -0.064320303 0.1924365
0.10685822 -0.064476982 0.19290535
0.10367138 -0.058072675 0.17374465
0.10692646 -0.05843091 0.17481659
0.10497088 -0.045450542 0.13598144
0.10599498 -0.045515899 0.13617685
-0.15120089 -0.095625937 0.28777203
-0.1528677 -0.097473003 0.29333085
-0.13263392 -0.10067419 0.30296397
-0.12309483 -0.095294528 0.28677493
-0.12055338 -0.094265886 0.28367922
-0.11949801 -0.10566365 0.31797916
-0.11730549 -0.1067609 0.32128116
-0.10083192 -0.10190964 0.3066822
-0.086636603 -0.092366301 0.27796268
-0.084127344 -0.090938337 0.27366525
-0.082836337 -0.090805374 0.2732656
-0.071282245 -0.083434261 0.25108337
-0.066970415 -0.086172432 0.25932345
0.11565679 -0.081669502 0.24577239
0.095657513 -0.060168739 0.18106912
0.10226469 -0.063300185 0.19049287
-0.14767359 -0.089922257 0.27220044
-0.15081438 -0.094439231 0.28587353
-0.15757288 -0.10155127 0.30740255
-0.12599246 -0.096967138 0.29352558
-0.1310304 -0.10557578 0.31958473
-0.12984832 -0.10517149 0.31836113
-0.1192551 -0.099190503 0.30025595
-0.11407544 -0.10505869 0.31801921
-0.11080582 -0.1039049 0.31452662
-0.10650508 -0.10172345 0.3079232
-0.10330597 -0.10116849 0.30624387
-0.09738826 -0.098493606 0.29814646
-0.086528406 -0.091711149 0.27761564
-0.084618598 -0.09093412 0.27526337
-0.074353129 -0.082780182 0.25058109
-0.071063355 -0.08207348 0.2484419
-0.066674016 -0.085289136 0.2581757
0.10507598 -0.087235153 0.26406625
0.10929488 -0.087449692 0.26471576
0.10329381 -0.079757839 0.24143231
0.11342377 -0.08035402 0.24323674
0.10872319 -0.072379336 0.21909721
0.10566491 -0.057471383 0.17396989
0.1078506 -0.058047369 0.17571329
-0.1601609 -0.094713226 0.2884008
-0.15757288 -0.1009536 0.30740255
-0.13730106 -0.099125527 0.30183595
-0.13209239 -0.098608263 0.30026105
-0.12496699 -0.096090131 0.29259354
-0.11975944 -0.092549115 0.28181115
-0.11651603 -0.1029927 0.3136113
-0.10664826 -0.10189014 0.3102546
-0.10365053 -0.10027321 0.30533075
-0.099389173 -0.098634817 0.3003417
-0.094711967 -0.095223062 0.28995332
-0.076397195 -0.083354473 0.25381333
-0.068919398 -0.080943368 0.24647176
-0.068349563 -0.080892473 0.24631654
0.10487692 -0.086557314 0.26356617
0.10619484 -0.086255185 0.26264602
0.10770603 -0.086567327 0.26359656
0.1088691 -0.087046817 0.26505673
0.10767797 -0.080248304 0.24435495
0.10683665 -0.07736972 0.23558968
0.11736753 -0.080088936 0.24386951
0.11325505 -0.076602228 0.23325287
0.10357597 -0.063361637 0.1929356
0.10550447 -0.063281678 0.19269185
0.10401312 -0.056840159 0.17307734
0.10601544 -0.044730239 0.1362031
-0.16520992 -0.096378759 0.29521996
-0.15033431 -0.094175115 0.28846955
-0.14980027 -0.10650834 0.32624754
-0.15237945 -0.10884874 0.33341667
-0.13925605 -0.1018561 0.31199744
-0.1245607 -0.096173339 0.29459077
-0.12606759 -0.097831309 0.29966944
-0.12260657 -0.10023824 0.30704182
-0.1196569 -0.10394684 0.31840175
-0.11582608 -0.10356406 0.31722927
-0.11066078 -0.10011771 0.30667281
-0.093813621 -0.088003166 0.26956463
-0.098726049 -0.096771553 0.29642323
-0.066673636 -0.079669073 0.24403618
0.10933779 -0.086454153 0.26481977
0.10727931 -0.076868005 0.23545612
0.11063872 -0.078174919 0.2394594
0.11118031 -0.0744261 0.22797614
0.10555855 -0.063185871 0.19354628
-0.16762541 -0.095027857 0.29282582
-0.16760352 -0.095371552 0.29388493
-0.16203189 -0.095050916 0.29289696
-0.15121388 -0.090452254 0.2787261
-0.14818022 -0.091522157 0.28202286
-0.13336997 -0.098383158 0.30316505
-0.11990117 -0.099574529 0.30683604
-0.1144219 -0.10229805 0.31522846
-0.090991139 -0.090994366 0.280397
-0.089537971 -0.090736501 0.27960196
-0.087781325 -0.090773821 0.27971727
0.10542691 -0.085067168 0.26213229
0.10658696 -0.085098729 0.2622295
0.10675356 -0.076394074 0.2354064
0.10739495 -0.076492541 0.23570995
0.12628779 -0.0855354 0.26357505
0.10327346 -0.062180944 0.19160928
0.10603053 -0.044206873 0.13622257
-0.15311749 -0.088260382 0.27361155
-0.126377 -0.098403186 0.30505428
-0.11517984 -0.095603429 0.29637504
-0.11092687 -0.099753916 0.30924177
-0.099524342 -0.091128848 0.28250387
-0.095404714 -0.09360341 0.29017526
-0.091953017 -0.092011377 0.28523967
-0.084991403 -0.089184418 0.27647617
-0.083384462 -0.088110849 0.27314776
-0.068880282 -0.080072641 0.24822924
0.10542834 -0.085928574 0.2663829
0.10556791 -0.084670648 0.26248294
0.10284793 -0.077543907 0.24039006
0.10846047 -0.078632966 0.24376622
0.10448941 -0.075391836 0.2337184
0.10986253 -0.076701902 0.23777939
0.11102437 -0.076451935 0.23700507
0.10345693 -0.061918173 0.1919497
0.10640347 -0.062201727 0.19282843
0.10500837 -0.043879848 0.13602991
0.10604503 -0.043948036 0.13624121
-0.16828792 -0.093909651 0.29288962
-0.16274661 -0.096184246 0.29998389
-0.15280735 -0.092871301 0.2896513
-0.095275521 -0.092913389 0.28978223
-0.077300414 -0.081762068 0.25500336
0.104147 -0.083919413 0.2617318
0.10665352 -0.083691478 0.26102072
0.1037985 -0.055577155 0.17333683
0.10715129 -0.056169502 0.17518422
-0.14664625 -0.091171898 0.28608605
-0.1431556 -0.0901291 0.28281417
-0.15401436 -0.10640045 0.33387128
-0.15014409 -0.1056854 0.33162743
-0.15162776 -0.10826305 0.33971602
-0.14673868 -0.10734233 0.33682665
-0.12923826 -0.098402634 0.30877498
-0.1252626 -0.10328706 0.32410175
-0.093231864 -0.091559343 0.28730205
-0.089241296 -0.09001185 0.28244576
-0.07153324 -0.079698697 0.25008461
0.10258049 -0.08259958 0.25918728
0.10585288 -0.07768321 0.24376041
0.1049681 -0.074468255 0.23367201
0.11994623 -0.080498129 0.25259295
0.10540376 -0.061590146 0.19326249
0.10514534 -0.043407541 0.13620737
-0.14074595 -0.088821523 0.28042185
-0.13629246 -0.10158445 0.32071549
-0.12933359 -0.098884292 0.31219107
-0.12772699 -0.099713728 0.31480974
-0.12496102 -0.10592438 0.33441788
-0.098330945 -0.092917874 0.29335448
-0.097082056 -0.092326388 0.29148734
-0.078464329 -0.081412598 0.25703067
-0.071998641 -0.079727903 0.25171173
-0.069197394 -0.078382969 0.24746583
-0.069094546 -0.082690902 0.26106656
-0.06960348 -0.084667504 0.26730683
0.10641216 -0.075752907 0.23916262
0.10445575 -0.061143078 0.19303724
0.10671023 -0.055453587 0.1750747
-0.16942632 -0.092824832 0.29487082
-0.15939961 -0.088650584 0.28161049
-0.16018292 -0.093314469 0.29642627
-0.14753497 -0.086978525 0.276299
-0.14093418 -0.08583574 0.27266875
-0.1451426 -0.089135945 0.28315282
-0.14443691 -0.089826308 0.28534532
-0.14149149 -0.091070741 0.28929886
-0.14298871 -0.094512634 0.30023247
-0.14166056 -0.094056971 0.29878461
-0.14612123 -0.09880016 0.31385243
-0.14361137 -0.099853627 0.31719834
-0.1339125 -0.099699162 0.31670809
-0.12613405 -0.10330792 0.32817131
-0.099917658 -0.090379886 0.28710389
-0.10887276 -0.10032866 0.3187075
-0.068993352 -0.078877963 0.2505666
-0.068078361 -0.079059221 0.25114247
-0.0691076 -0.082198739 0.26111573
-0.069225021 -0.083008811 0.26368883
0.10242543 -0.081468321 0.2587955
0.10567309 -0.081413567 0.25862134
0.10745912 -0.072543882 0.23044567
0.12649246 -0.083855577 0.26637876
0.10647242 -0.060741343 0.19295342
0.10689021 -0.060744416 0.19296294
0.10473512 -0.055058479 0.17490098
-0.14543372 -0.081930652 0.26188135
-0.14043826 -0.085358359 0.27283749
-0.14011504 -0.089237899 0.28523785
-0.13892198 -0.10025609 0.32045615
-0.1252771 -0.10197234 0.3259418
-0.12458342 -0.10254812 0.32778269
-0.10079363 -0.091168933 0.29141057
-0.088810317 -0.087937638 0.28108171
-0.070644453 -0.080894724 0.25857025
0.10075838 -0.078796305 0.25186294
0.10613871 -0.076467372 0.24441847
0.10780104 -0.0765348 0.24463446
0.10453749 -0.060439728 0.19318819
0.10279162 -0.054089114 0.17288953
0.10517382 -0.054558139 0.17438862
0.10489955 -0.042631414 0.1362662
-0.16886708 -0.092060544 0.29610062
-0.14727013 -0.082449637 0.26518834
-0.14651281 -0.085308917 0.27438477
-0.13561784 -0.079602368 0.25603071
-0.13691755 -0.081019148 0.26058736
-0.13975166 -0.085477851 0.27492833
-0.14022213 -0.086127751 0.2770189
-0.1377331 -0.086052455 0.27677613
-0.13751163 -0.086658478 0.27872556
-0.14062977 -0.095669337 0.30770776
-0.14002711 -0.096158661 0.30928183
-0.13833366 -0.095446438 0.30699071
-0.13712804 -0.098346427 0.31631806
-0.13529237 -0.097996131 0.31519172
-0.13329732 -0.097522378 0.31366736
-0.13077833 -0.097145222 0.31245455
-0.10168942 -0.090291709 0.29041141
-0.10187355 -0.091010772 0.29272389
-0.10103344 -0.090817913 0.29210398
-0.096836895 -0.090397321 0.29075113
-0.089830399 -0.088394821 0.28431037
-0.072693393 -0.079014853 0.25414065
-0.069609009 -0.078598723 0.25280246
-0.070319436 -0.080022022 0.25738052
-0.068103842 -0.078732677 0.25323319
0.10432132 -0.081075668 0.26076937
0.10832674 -0.081573628 0.2623708
0.10829356 -0.076037839 0.24456583
0.10444732 -0.072635993 0.23362435
0.12189778 -0.079811387 0.25670284
0.10519469 -0.060203854 0.19363798
0.10595444 -0.0544286 0.17506269
-0.16783305 -0.090924591 0.29428735
-0.15105169 -0.087053239 0.28175715
-0.1385529 -0.089883827 0.2909185
-0.13637029 -0.093948908 0.30407596
-0.1310441 -0.097230256 0.31469649
-0.13070482 -0.097478874 0.31550106
-0.13001759 -0.097469278 0.31546986
-0.12805359 -0.098030485 0.31728616
-0.12097628 -0.10002878 0.32375398
-0.10532127 -0.089648403 0.29015687
-0.10160539 -0.090760976 0.29375759
-0.074467093 -0.078672849 0.2546334
-0.070190966 -0.078153513 0.25295258
0.10877752 -0.081400827 0.26346263
0.10674427 -0.075575717 0.24460903
0.10682593 -0.072781727 0.23556605
0.10809274 -0.072282143 0.23394902
0.10806455 -0.054397009 0.17606199
0.10484248 -0.042078629 0.13619205
0.10563558 -0.042162765 0.13646452
-0.15056543 -0.082604378 0.26905102
-0.15027611 -0.08308021 0.27060106
-0.13979526 -0.08373104 0.27272078
-0.13457748 -0.08267422 0.26927835
-0.13332056 -0.082608588 0.26906469
-0.13861626 -0.093120128 0.30330205
-0.13296577 -0.096548662 0.31446889
-0.10690361 -0.089893222 0.29279199
-0.1049241 -0.089805834 0.29250738
-0.10169436 -0.089714378 0.29220906
-0.076384284 -0.077912875 0.25377041
-0.069323413 -0.075538188 0.24603592
0.10697813 -0.075264648 0.24514489
0.10477205 -0.053717136 0.17496257
-0.16584142 -0.08838357 0.28970945
-0.15210725 -0.082921736 0.27180627
-0.14933947 -0.082675911 0.27100044
-0.14483561 -0.085842714 0.28138068
-0.13325997 -0.082762092 0.27128288
-0.13550951 -0.086030908 0.28199732
-0.13688284 -0.089285471 0.29266578
-0.13118324 -0.093237132 0.30561855
-0.13616368 -0.098244607 0.32203215
-0.12420841 -0.10026172 0.32864416
-0.1198538 -0.097296819 0.31892571
-0.1140299 -0.093098581 0.30516419
-0.10297625 -0.090827718 0.29772082
0.10493166 -0.080884293 0.26512769
0.10576082 -0.080223687 0.26296243
0.10678499 -0.080148764 0.26271674
0.10447215 -0.071632691 0.23480235
0.12500973 -0.079596847 0.26090774
0.12512116 -0.079314016 0.25998041
0.10234299 -0.05270382 0.17275599
0.10655129 -0.053519342 0.17542921
0.10520045 -0.041575421 0.13627878
-0.14127122 -0.082172811 0.27107891
-0.14429632 -0.08533226 0.28150153
-0.13483851 -0.080749266 0.26638305
-0.13476694 -0.082447015 0.27198389
-0.13700086 -0.087988734 0.29026514
-0.13689466 -0.088320524 0.29135934
-0.13711996 -0.09224239 0.30429748
-0.13400516 -0.093702704 0.30911446
-0.12978573 -0.09120176 0.30086485
-0.13467529 -0.10009316 0.33019587
-0.13284525 -0.10030992 0.33091122
-0.13166396 -0.099950127 0.3297241
-0.094129421 -0.087928832 0.29006782
-0.093164787 -0.08760488 0.28899878
-0.068793073 -0.077539966 0.25579593
0.10571697 -0.080535382 0.26567721
0.10482731 -0.07390321 0.24379842
0.10971436 -0.053810045 0.1775137
-0.15937966 -0.084807128 0.28157529
-0.14878426 -0.083922729 0.27863857
-0.1430047 -0.081975222 0.27217269
-0.13790856 -0.081370927 0.27016661
-0.13398486 -0.085114405 0.28259531
-0.14594877 -0.10396245 0.34517431
-0.074736603 -0.07641165 0.25370079
0.10784324 -0.079911336 0.26532021
0.10590189 -0.073814966 0.24507943
0.10792999 -0.073769048 0.24492681
0.10806462 -0.071102172 0.23607233
0.10354148 -0.058090527 0.19287139
0.10586861 -0.058236741 0.19335695
0.10640851 -0.058306169 0.19358744
0.10815647 -0.05880665 0.19524893
0.1056312 -0.052752122 0.17514707
0.10629907 -0.041132461 0.13656755
-0.14200813 -0.080225624 0.26809481
-0.14011662 -0.083185025 0.27798408
-0.14147636 -0.085074559 0.28429836
-0.13517281 -0.086090848 0.28769469
-0.13360356 -0.088723846 0.29649365
-0.13672306 -0.092106119 0.30779642
-0.13870999 -0.10230538 0.34187979
-0.13074501 -0.10123029 0.33828694
-0.10521556 -0.087774128 0.29331967
-0.077898219 -0.076359861 0.25517628
-0.075159431 -0.076347947 0.2551361
-0.075094216 -0.076839067 0.25677797
0.10572664 -0.073217094 0.24467395
0.10660199 -0.073100187 0.24428299
0.12265625 -0.077294737 0.25829998
0.1088529 -0.052702717 0.17611985
-0.15054868 -0.081220567 0.27319476
-0.14729346 -0.081357807 0.27365613
-0.14584099 -0.081200376 0.27312651
-0.14108381 -0.081150241 0.27295831
-0.13527118 -0.080468923 0.27066654
-0.13437085 -0.083133236 0.27962777
-0.13491684 -0.083843976 0.2820183
-0.12950528 -0.081574179 0.2743842
-0.13873033 -0.089409381 0.30073875
-0.13422482 -0.088979371 0.29929185
-0.10329982 -0.088245086 0.29682234
-0.10145686 -0.087748505 0.29515186
-0.095624022 -0.086467244 0.29084229
-0.094083436 -0.086766295 0.29184821
-0.07280612 -0.076242715 0.25645095
0.10946918 -0.079649977 0.26791182
0.109635 -0.07935562 0.26692122
0.1068133 -0.070025332 0.23553802
0.10469744 -0.057522617 0.19348386
0.10471439 -0.051987629 0.1748663
0.1066354 -0.05219616 0.17556758
0.10813243 -0.052013662 0.17495415
-0.16048595 -0.083114319 0.28140458
-0.15094244 -0.080900557 0.27390927
-0.13925143 -0.078597412 0.26611182
-0.14231782 -0.082002982 0.27764189
-0.093435258 -0.085605077 0.2898376
-0.093717881 -0.087017886 0.29462099
0.10476659 -0.057184167 0.19361161
0.10759562 -0.051775124 0.17529802
-0.13517447 -0.080391034 0.27398828
-0.13279201 -0.086057737 0.29330143
-0.10751288 -0.086397879 0.2944608
-0.09408509 -0.085068934 0.28993109
-0.077590428 -0.075101376 0.25595999
-0.073646806 -0.074985266 0.25556421
-0.072160356 -0.074578144 0.25417644
0.10988063 -0.069457285 0.23672347
0.10439143 -0.051517118 0.17558029
0.10594039 -0.040045124 0.13648137
-0.15731388 -0.080398798 0.27584255
-0.15320626 -0.080100603 0.27481979
-0.14875527 -0.079604715 0.27311838
-0.1554569 -0.084856085 0.29113504
-0.13803503 -0.076262116 0.26164991
-0.13711789 -0.079289056 0.2720347
-0.14302382 -0.094300404 0.32353774
-0.14407484 -0.095920853 0.32909769
-0.10540794 -0.086162627 0.29561767
-0.10277852 -0.087147564 0.29899687
-0.070962675 -0.073968083 0.25377882
0.10418634 -0.068249799 0.2341599
0.10429125 -0.056397956 0.19349754
0.10461181 -0.051100086 0.17532066
0.1069769 -0.050274413 0.17248793
-0.15432985 -0.079540089 0.27472863
-0.13279508 -0.07792934 0.26916537
-0.13595319 -0.080479972 0.27797511
-0.14934368 -0.093731776 0.323746
-0.14938062 -0.094191305 0.3253336
-0.13855898 -0.089449637 0.30895644
-0.09891542 -0.084896028 0.29322839
-0.093386196 -0.083870418 0.28968555
-0.071643718 -0.073617034 0.25427088
-0.070840493 -0.073348083 0.253342
-0.070272684 -0.073889785 0.25521287
-0.069285229 -0.073421411 0.25359514
0.10966007 -0.078110151 0.26979014
0.10654123 -0.071032919 0.2453454
0.1074093 -0.070913702 0.24493331
0.10753279 -0.068330795 0.23601252
0.12364728 -0.075050004 0.2592203
0.10777275 -0.056546487 0.19530983
0.10649415 -0.050942581 0.17595427
0.10685618 -0.050935954 0.1759312
0.10490488 -0.039454017 0.13627325
0.10599041 -0.039533012 0.13654613
-0.12673227 -0.073553398 0.25576845
-0.15167327 -0.094554551 0.32879606
-0.10884358 -0.084736422 0.29465538
-0.10408669 -0.086541161 0.30093125
-0.10500382 -0.088396132 0.30738184
-0.077053279 -0.073617898 0.25599313
-0.072057262 -0.075257361 0.26169395
-0.068132326 -0.072854675 0.25333911
0.10989757 -0.077346936 0.26896015
0.11001357 -0.077025682 0.26784292
0.10402019 -0.069918789 0.24312998
0.10513724 -0.070318311 0.24451928
0.10490073 -0.067800939 0.23576561
0.10589671 -0.055837855 0.19416623
0.10536616 -0.050420664 0.17532896
0.10670926 -0.049650647 0.17265144
0.10566099 -0.039253529 0.13649739
-0.1393552 -0.078305945 0.27414861
-0.13247739 -0.076698758 0.26852128
-0.10315344 -0.08571507 0.3000876
-0.10201041 -0.085295588 0.29861903
0.10709182 -0.069754414 0.24420938
0.10557414 -0.067450814 0.23614484
0.12108043 -0.073160537 0.25613457
0.10743633 -0.055612851 0.19470012
-0.1511101 -0.077791348 0.27421379
-0.14964995 -0.077641957 0.2736868
-0.13871697 -0.077416748 0.27289283
-0.13199392 -0.075898707 0.26754141
0.10612559 -0.067021184 0.23624882
0.12652238 -0.074579559 0.26289198
0.10426677 -0.055098735 0.19422229
0.10526669 -0.05518771 0.19453593
-0.15530993 -0.077599697 0.2754252
-0.13487762 -0.077698439 0.27577585
-0.1452899 -0.084434636 0.29968461
-0.1036315 -0.084939912 0.30147856
-0.097961731 -0.082340747 0.29225284
-0.076320864 -0.071950011 0.25537321
-0.069457784 -0.071071066 0.25225323
0.10878605 -0.075804763 0.26905462
0.1230903 -0.073032208 0.25921422
0.10612259 -0.049576245 0.17596173
0.10576018 -0.038493522 0.13662554
-0.14479455 -0.079700939 0.28484911
-0.13729367 -0.075891279 0.27123329
-0.138799 -0.077048637 0.27536997
-0.14634274 -0.094453387 0.33757406
-0.10605404 -0.082235098 0.29390618
-0.10441644 -0.081935897 0.29283687
-0.074166626 -0.071481541 0.2554732
0.10613752 -0.066109888 0.23627533
0.1232384 -0.072615489 0.2595259
0.12627448 -0.073413193 0.26237687
0.10615748 -0.049250323 0.17601973
0.10759319 -0.049391363 0.17652352
0.10762574 -0.049233615 0.1759598
-0.15108551 -0.076179534 0.27416906
-0.14815052 -0.076176979 0.27415967
-0.14672494 -0.090046406 0.32407549
-0.1088972 -0.081440948 0.29310465
-0.10444706 -0.081881143 0.29468924
-0.092801683 -0.080521017 0.28979355
-0.078304894 -0.071774967 0.25831711
-0.071214676 -0.070227616 0.25274816
0.1083004 -0.074424751 0.26785356
0.10415228 -0.053906545 0.19400893
0.10609703 -0.037978232 0.13668327
0.10664917 -0.037966806 0.13664211
-0.15419175 -0.075733021 0.27448282
-0.15179481 -0.075416557 0.2733359
-0.15090834 -0.075557835 0.2738474
-0.14011773 -0.076375879 0.27681258
-0.13223298 -0.07395155 0.26802602
-0.096902803 -0.080794767 0.29282817
-0.066724628 -0.068455085 0.24810481
0.10740262 -0.074074425 0.26847142
0.1071274 -0.071962334 0.26081619
0.12459602 -0.07207071 0.26120937
0.10555313 -0.053820748 0.19506513
0.10450177 -0.037559129 0.13612755
-0.15319058 -0.075283945 0.27479148
-0.13253784 -0.084175006 0.30724457
-0.10868956 -0.081080914 0.29595107
-0.10663337 -0.080483906 0.29377168
-0.078580543 -0.070522361 0.2574113
-0.075698443 -0.070400313 0.25696594
-0.072084785 -0.069563143 0.25391015
0.10887805 -0.06769149 0.24707845
0.10542889 -0.046733327 0.17057993
0.10590821 -0.037380047 0.13644008
-0.15496249 -0.075038888 0.27585483
-0.15168963 -0.074878484 0.27526516
-0.13311242 -0.073394172 0.2698085
-0.10959268 -0.080704696 0.29668355
-0.10659243 -0.080355197 0.29539809
-0.10496125 -0.080556922 0.29613999
-0.095211446 -0.079289988 0.29148239
-0.067369491 -0.067076318 0.24658321
-0.067756377 -0.068533801 0.25194111
0.10497665 -0.069887333 0.25691661
0.10698793 -0.066691227 0.24516755
0.1053543 -0.052962277 0.19469763
0.10743017 -0.053165767 0.19544615
-0.1509828 -0.074284956 0.27504945
-0.14177701 -0.074700296 0.2765868
-0.13763896 -0.0743808 0.27540407
-0.10830837 -0.078733303 0.29151979
-0.10939664 -0.080450073 0.29787618
-0.09280441 -0.078269415 0.28980225
-0.077821434 -0.069335237 0.25672203
0.10308418 -0.068857275 0.25495255
0.10562023 -0.066342898 0.24564262
0.10775691 -0.066365406 0.24572602
0.10697901 -0.063712627 0.23590373
0.10945448 -0.063686073 0.23580551
0.12393428 -0.070488244 0.26099145
0.10472894 -0.036844976 0.1364235
0.10576103 -0.036899906 0.13662665
-0.15372187 -0.073936701 0.2757445
-0.14163725 -0.083098158 0.30991212
-0.10421398 -0.079318397 0.29581559
-0.074991673 -0.068757012 0.2564272
-0.066521548 -0.065799952 0.2453994
0.10817473 -0.073684946 0.27480611
0.10696895 -0.070564754 0.26316929
0.10680793 -0.065950274 0.24595968
0.10582376 -0.063468285 0.23670317
0.12297459 -0.069752924 0.26014128
0.10269295 -0.051703244 0.19282623
-0.14377789 -0.074663736 0.28049034
-0.14204051 -0.074070483 0.27826115
-0.14862938 -0.080893412 0.30389312
-0.10721537 -0.078165635 0.29364586
-0.10419934 -0.078257337 0.29399043
-0.077840909 -0.068354033 0.25678653
-0.074345432 -0.068168454 0.25608912
0.10793168 -0.07298629 0.27418864
0.10686354 -0.071873747 0.27000916
0.10663969 -0.062892407 0.23626912
0.10650789 -0.051983383 0.19528691
0.1051442 -0.046906058 0.17621294
0.10542119 -0.046861831 0.17604652
0.10502049 -0.045387704 0.17050867
0.10405371 -0.03628242 0.1363028
0.10627897 -0.036345981 0.13654172
0.10644563 -0.036303308 0.13638139
-0.14859024 -0.072660506 0.27497336
-0.14225246 -0.073332027 0.27751443
-0.13700427 -0.072438784 0.27413425
-0.12679666 -0.076909155 0.29105151
-0.10920399 -0.078119271 0.29563135
-0.10902528 -0.07844539 0.29686502
-0.10746533 -0.078233652 0.29606348
-0.10361272 -0.079650052 0.30142358
-0.074860722 -0.068139523 0.25786415
-0.066837072 -0.064643629 0.24463446
-0.065579213 -0.064435206 0.24384576
0.10663374 -0.0715819 0.27089134
0.10636273 -0.069882222 0.26445916
0.12279978 -0.068643562 0.25977159
0.12633763 -0.069366656 0.26250806
0.10412135 -0.036040775 0.13639133
0.10449392 -0.036068812 0.13649724
-0.1519492 -0.072325923 0.27573636
-0.14286961 -0.073414333 0.27988535
-0.14056897 -0.072842076 0.27770403
-0.10830861 -0.077809095 0.29664004
-0.098694772 -0.077232033 0.29443967
-0.077963784 -0.067461759 0.2571916
-0.07072904 -0.065844178 0.25102466
-0.067881502 -0.064664863 0.24652866
0.10486954 -0.0642941 0.24511507
0.10838434 -0.064515196 0.24595816
0.1051944 -0.06171827 0.23529537
0.10393339 -0.035711028 0.13614523
0.10574965 -0.035833452 0.13661201
0.106466 -0.035779871 0.13640748
-0.14377458 -0.073025927 0.28048387
-0.10465259 -0.079265505 0.30444884
-0.097283237 -0.076047957 0.29209128
-0.093849733 -0.076301925 0.29306641
-0.074537076 -0.066846587 0.25674924
0.10087473 -0.066002689 0.25350815
0.1018521 -0.066286139 0.25459695
0.1051917 -0.068095848 0.26154757
0.10611156 -0.068328172 0.26243985
0.10711728 -0.06149862 0.23620863
0.12363186 -0.067785189 0.26035467
0.10641991 -0.051002175 0.19589318
0.10556763 -0.045898609 0.17629109
0.10441433 -0.035510883 0.1363934
0.10626434 -0.035544649 0.13652293
-0.10419472 -0.076428428 0.29576075
-0.075148039 -0.066402249 0.25696191
0.10480787 -0.066984586 0.25921559
0.10571162 -0.067206994 0.26007614
0.10844153 -0.067871921 0.26264894
0.10719944 -0.061086111 0.2363898
0.10772148 -0.061095711 0.2364267
0.12204716 -0.067019902 0.25935203
0.10602252 -0.050432298 0.19516179
0.10636214 -0.05039553 0.19501969
0.10533177 -0.045780845 0.17716196
0.10577232 -0.044223614 0.1711355
-0.14852098 -0.07021156 0.27376246
-0.093989521 -0.074775077 0.2915571
-0.092163071 -0.074810155 0.29169297
-0.075030379 -0.065799467 0.25655964
-0.064973503 -0.061961122 0.24159348
0.10475796 -0.062797427 0.24485432
0.10698531 -0.063185699 0.24636818
0.10672116 -0.060641911 0.23644947
0.12578863 -0.067633212 0.26370952
0.10385513 -0.049813572 0.19422878
0.1067421 -0.045231719 0.17636415
0.10427849 -0.043421108 0.16930401
0.10381794 -0.03497605 0.13637586
0.10472392 -0.035084255 0.13679776
0.10486715 -0.035034399 0.13660344
0.10603711 -0.035035055 0.13660622
-0.15142141 -0.070210114 0.27584836
-0.14282499 -0.071514785 0.28097454
-0.14436597 -0.072899461 0.28641447
-0.11008877 -0.075855061 0.29802629
-0.078358062 -0.065792672 0.25849223
-0.073356315 -0.065274857 0.25645828
-0.07037212 -0.064055286 0.25166684
0.10491272 -0.049740516 0.19542557
0.1060947 -0.034788407 0.13668023
-0.15135056 -0.069641165 0.27571937
-0.15062274 -0.069577262 0.27546597
-0.15009913 -0.069607437 0.27558556
-0.15245344 -0.072114214 0.28551018
-0.14333762 -0.070925027 0.28080219
-0.13765629 -0.070474401 0.27901861
-0.092539325 -0.073479481 0.29091617
-0.07490284 -0.065167792 0.25800914
-0.071325332 -0.063938282 0.25314081
-0.066555589 -0.061529554 0.24360423
0.1086309 -0.066455692 0.26310757
0.10777088 -0.062377498 0.24696161
0.10790339 -0.058987319 0.23353915
0.12691692 -0.066905417 0.26488811
0.1068676 -0.049492106 0.19594635
0.10743631 -0.044677865 0.17688645
0.10792202 -0.044722505 0.17706281
-0.15002182 -0.068766087 0.27436709
-0.14874683 -0.068990782 0.2752631
0.1038158 -0.061122641 0.24387063
0.10693209 -0.061717857 0.24624555
0.10582136 -0.057670593 0.23009738
0.12407714 -0.066084065 0.26366591
0.10562919 -0.048925478 0.1952057
0.107056 -0.043868281 0.17502831
0.10516817 -0.042795613 0.17074855
0.10562472 -0.034199335 0.13645044
0.10592217 -0.034201201 0.13645817
-0.1519831 -0.070784852 0.28462937
-0.14120348 -0.069082551 0.27778453
-0.10614318 -0.07403037 0.29767966
-0.10289743 -0.075381376 0.3031123
-0.071358062 -0.063953094 0.25715843
0.10774647 -0.061403263 0.24690567
0.1080609 -0.061282355 0.24641928
0.10577515 -0.058839001 0.23659422
-0.15098622 -0.070333816 0.28504452
-0.10444741 -0.075443588 0.30575305
-0.095490336 -0.072133064 0.29233611
-0.092797644 -0.071983084 0.29172805
-0.07735379 -0.063411802 0.25699151
-0.07392256 -0.063295729 0.25652111
-0.071407363 -0.062533587 0.25343207
0.10769479 -0.060893945 0.24678718
0.10831764 -0.058115073 0.23552531
0.11433436 -0.061059527 0.24745807
0.12653215 -0.065162234 0.26408505
0.10715804 -0.048480548 0.19647886
0.10619884 -0.043603644 0.17671451
0.10792806 -0.043692168 0.17707288
0.10605746 -0.042784844 0.17339581
0.10483456 -0.033695959 0.13656105
-0.15085848 -0.067540273 0.27589723
-0.14370069 -0.065099195 0.26592496
-0.14365719 -0.067205958 0.2745313
-0.094915047 -0.073045328 0.29838467
-0.072457485 -0.062479209 0.2552231
-0.066771649 -0.059828527 0.24439499
-0.065565199 -0.059210733 0.24187133
0.10584971 -0.057959676 0.23676103
0.10795546 -0.057732705 0.23583384
0.10556237 -0.047946028 0.19585589
0.10744802 -0.048040491 0.1962416
0.10418419 -0.033409018 0.13647377
-0.14960182 -0.06886863 0.28357512
-0.14219159 -0.067934379 0.27972844
-0.10583729 -0.075716548 0.31177235
-0.095007226 -0.071102276 0.2927728
0.10301093 -0.062870309 0.25887668
0.10637932 -0.063560538 0.26171869
0.10804468 -0.057590425 0.23713613
0.10626774 -0.056116715 0.23106796
0.12417422 -0.064083531 0.26387224
0.10559569 -0.047580197 0.19591776
0.10468287 -0.042760193 0.17607056
0.10653658 -0.042900436 0.17664823
0.10605596 -0.041673061 0.17159441
-0.14820963 -0.067956716 0.28207895
-0.14274718 -0.067939416 0.28200725
-0.096870176 -0.070522636 0.29272956
-0.076724462 -0.061848257 0.2567237
-0.070187442 -0.060470942 0.25100645
0.10626762 -0.059541415 0.24714833
0.10881557 -0.05726834 0.23771283
0.12445284 -0.063713141 0.26446426
0.10495372 -0.047099054 0.19550194
-0.14925256 -0.066003241 0.27619901
-0.10693264 -0.071665458 0.29989371
-0.10563066 -0.071651883 0.29983681
-0.077741235 -0.061720688 0.25827873
-0.075809613 -0.061497275 0.25734335
0.10701657 -0.055350114 0.23161981
0.10609449 -0.046669319 0.19529423
0.10599238 -0.042297691 0.17700052
0.10454632 -0.040703658 0.17033011
0.10539414 -0.03271696 0.13690878
-0.147145 -0.066650793 0.28119648
-0.10858944 -0.071328625 0.3009325
-0.076484613 -0.061096642 0.25776458
-0.075784616 -0.060976736 0.25725856
-0.069954023 -0.059753746 0.25209856
0.10361314 -0.06171903 0.26039013
0.10516833 -0.058556512 0.24704765
0.10365503 -0.046132829 0.19463246
0.10752043 -0.041959345 0.17702483
0.10377821 -0.032403089 0.13670731
-0.14725925 -0.064572789 0.27468321
-0.1374588 -0.06549789 0.27861825
0.12478353 -0.061774548 0.26277998
0.1257368 -0.061691098 0.26242507
0.10542592 -0.046165526 0.19638151
0.10760689 -0.046200879 0.19653162
0.10759839 -0.04601755 0.19575217
0.10532808 -0.032164417 0.13682289
-0.14840636 -0.064281322 0.27572379
-0.14297135 -0.065572567 0.28126219
-0.13983537 -0.064678125 0.27742618
-0.13753714 -0.064712852 0.27757463
-0.13594638 -0.064520963 0.27675182
-0.10981702 -0.069712736 0.29902092
-0.1072742 -0.069721505 0.29905888
-0.09369354 -0.068669178 0.29454464
-0.064620554 -0.056018353 0.24028108
-0.069688417 -0.060895499 0.26120096
0.10535236 -0.055202208 0.23678066
0.10767712 -0.055356674 0.23744312
0.10764611 -0.054316703 0.23298246
0.123464 -0.061166383 0.26236305
0.10568845 -0.045535095 0.19531523
0.10725909 -0.04131607 0.17721803
0.10714447 -0.040982381 0.17578717
0.10438512 -0.031878304 0.13673699
0.10667907 -0.031952638 0.13705587
-0.15290828 -0.064150542 0.27747658
-0.14253767 -0.065378159 0.28278738
-0.10590151 -0.069078647 0.2987929
-0.095548064 -0.068072133 0.29443952
0.10923883 -0.061168868 0.26458013
0.10524581 -0.056872025 0.24599476
0.10693435 -0.055035107 0.23804909
0.12736073 -0.062007524 0.26820707
0.1030941 -0.044934355 0.19435929
0.10550696 -0.045436732 0.19653244
0.10630882 -0.045420434 0.19646174
0.10529669 -0.041092519 0.17774186
0.10712101 -0.040069669 0.17331778
0.10543899 -0.031665698 0.13696693
0.10686005 -0.031652991 0.13691238
-0.15411535 -0.063619614 0.27751428
-0.14316247 -0.065669484 0.28645632
-0.14701232 -0.069211401 0.30190641
-0.10419921 -0.068219453 0.29757884
-0.094512857 -0.067659661 0.29513708
-0.075184874 -0.059370827 0.25898069
-0.074110895 -0.059397344 0.25909626
0.10324032 -0.059800357 0.2608543
0.10781288 -0.060174197 0.26248515
0.10552038 -0.056540858 0.24663638
0.1265299 -0.061361071 0.26766241
0.12706845 -0.06134481 0.26759171
0.10384528 -0.044700962 0.19498986
0.10683478 -0.040041946 0.17466675
0.10685394 -0.039633583 0.17288566
-0.14711297 -0.062624179 0.27550864
-0.13774674 -0.063189842 0.27799776
-0.1109152 -0.068648323 0.30201107
-0.10935473 -0.068479426 0.30126891
-0.09661255 -0.066792972 0.29384887
-0.071613617 -0.058213986 0.25610694
0.1066611 -0.059335198 0.26103923
0.10748135 -0.059480339 0.26167795
0.11124383 -0.05498204 0.24188803
0.12596874 -0.061123539 0.26890683
0.10550574 -0.044671927 0.1965301
0.10552953 -0.031159764 0.13708459
-0.10538436 -0.067824967 0.30096358
-0.094330527 -0.066383637 0.29456782
-0.092152089 -0.066175655 0.29364476
-0.063332759 -0.053495623 0.23737918
0.10793919 -0.059532542 0.26416722
0.10896295 -0.059784476 0.26528502
0.10697127 -0.055788621 0.24755433
0.10753266 -0.055805366 0.24762863
0.10576709 -0.053570751 0.23771283
0.10599193 -0.044142447 0.1958762
0.1078073 -0.044372763 0.19689786
0.10744427 -0.03986587 0.17689943
0.10482591 -0.038488068 0.17078556
0.10338755 -0.030692257 0.13619274
0.10464246 -0.030804638 0.13669129
0.10606295 -0.030877968 0.13701679
0.10632279 -0.030868405 0.13697398
-0.152769 -0.061935954 0.27722397
-0.14715861 -0.067815229 0.30353904
-0.064357363 -0.053463757 0.23930266
-0.14515455 -0.20551799 0.91989166
0.097259067 -0.054607511 0.24442178
0.10513624 -0.054901633 0.24573858
0.10766506 -0.055120729 0.24671894
0.10850537 -0.052467253 0.234842
0.10752473 -0.04387467 0.19638178
0.10726725 -0.039596193 0.1772317
0.10767756 -0.039607756 0.1772835
0.10697559 -0.030621305 0.13706043
-0.10871822 -0.066726685 0.30128935
-0.074251592 -0.057491269 0.25958806
0.097648293 -0.054348849 0.24539982
0.10483723 -0.057424739 0.25928837
0.10766421 -0.054909606 0.24793163
0.10589965 -0.052712314 0.2380107
0.12687105 -0.058643725 0.26479223
0.10366827 -0.043284561 0.19544186
0.10563311 -0.039348368 0.17766893
0.107714 -0.039276313 0.17734356
-0.15338407 -0.060632657 0.27619749
-0.1522852 -0.061139558 0.2785064
-0.14774223 -0.060740203 0.27668706
-0.13980773 -0.061411031 0.27974364
-0.13814609 -0.06146986 0.28001142
-0.13817526 -0.062844172 0.28627154
-0.10769244 -0.065516882 0.29844654
-0.10136337 -0.065964431 0.30048504
-0.072316892 -0.056343615 0.25666004
-0.065808877 -0.053294409 0.24277024
-0.063226767 -0.052023776 0.23698187
-0.14029664 -0.20061713 0.91386187
0.099998683 -0.055168409 0.25130668
0.10437012 -0.056968179 0.25950477
0.10756057 -0.05437512 0.24769285
0.10890393 -0.052471604 0.2390219
0.12672554 -0.058062214 0.26448873
0.10622802 -0.043095674 0.19631231
0.10524945 -0.030097283 0.13710144
0.10563777 -0.030124523 0.13722518
0.10595174 -0.030130323 0.13725197
0.10648293 -0.030114684 0.13718043
-0.15266384 -0.060512163 0.2781117
-0.14858851 -0.060305633 0.27716267
-0.13884209 -0.060706403 0.27900466
-0.1437732 -0.063961275 0.29396421
-0.10134545 -0.064957015 0.29854044
-0.073640183 -0.05643842 0.25938892
-0.14041886 -0.19901358 0.91465849
0.10381933 -0.055868685 0.25677064
0.1056222 -0.056539994 0.25985599
0.10882547 -0.051969364 0.23884982
0.11007168 -0.052319072 0.24045689
0.10499296 -0.04272363 0.19635679
0.10783189 -0.042684581 0.19617684
0.10536065 -0.037479859 0.17225647
0.10700601 -0.037801012 0.17373236
0.10386531 -0.029686432 0.13643801
-0.15146598 -0.059733447 0.27700827
-0.15050073 -0.059820414 0.27741167
-0.14624603 -0.060266104 0.27947864
-0.14238131 -0.059156839 0.27433407
-0.14200981 -0.062069807 0.28784287
-0.14413247 -0.064108454 0.29729727
-0.10751256 -0.064631619 0.29972342
-0.10394365 -0.064404957 0.2986722
-0.10153392 -0.064496346 0.29909563
-0.095787771 -0.064073622 0.29713514
-0.071420208 -0.055501439 0.25738245
-0.065813571 -0.052354116 0.24278763
0.10751106 -0.051364828 0.23819949
0.12878831 -0.059015114 0.27367699
0.105518 -0.038408384 0.17811541
0.10757177 -0.038326249 0.17773481
0.10848363 -0.038380142 0.17798436
-0.1492023 -0.059236351 0.27720246
-0.13820572 -0.059862398 0.28013226
-0.096070573 -0.062849909 0.29411265
-0.095495515 -0.062885188 0.2942777
-0.091891803 -0.063001849 0.29482332
-0.078021161 -0.055787273 0.26106241
-0.069352828 -0.053823374 0.25187206
0.10927794 -0.059974398 0.28065649
0.10491559 -0.052665565 0.24645394
0.10892827 -0.051088795 0.23907533
0.10638221 -0.049430858 0.23131695
0.10787128 -0.04210069 0.19701456
0.10315048 -0.035912309 0.16805585
0.10437791 -0.029217716 0.1367276
-0.15251221 -0.058831438 0.27783534
-0.15123446 -0.058796361 0.27767006
-0.14012246 -0.059115961 0.27917936
-0.14287181 -0.062401768 0.29469696
-0.1357152 -0.059538446 0.2811749
-0.10169298 -0.063035548 0.29768988
-0.094434485 -0.062443197 0.29489252
-0.076994553 -0.054945305 0.25948295
-0.063718267 -0.050570779 0.23882414
0.10770877 -0.052520975 0.24803424
0.10565107 -0.050280213 0.23745209
0.10941484 -0.050612658 0.23902203
0.12516154 -0.055314001 0.26122442
0.10674132 -0.041769836 0.19726093
0.1074427 -0.041714732 0.19700089
0.10762869 -0.041461971 0.19580728
-0.14834793 -0.058758762 0.28006363
-0.14221285 -0.057726249 0.27514267
-0.1411247 -0.057522342 0.27417111
-0.14057159 -0.058760833 0.28007439
-0.10429084 -0.062488358 0.29784068
-0.10379816 -0.062575191 0.29825416
-0.098826759 -0.062254414 0.29672566
-0.096626393 -0.061659716 0.29389101
-0.095902741 -0.062415197 0.29749185
-0.094887696 -0.062584437 0.29829863
-0.066331521 -0.0513389 0.24469827
0.11096216 -0.058505967 0.27885881
0.10771409 -0.037338894 0.17796999
0.10487105 -0.028741129 0.13698986
0.10627826 -0.028805001 0.13729478
-0.1420361 -0.058573432 0.28179222
-0.13835597 -0.058040291 0.27922714
-0.13579026 -0.057964128 0.27886048
-0.13434447 -0.057599712 0.27710783
-0.11037105 -0.062468298 0.30052939
-0.10800299 -0.062584817 0.30109078
-0.10118639 -0.061957289 0.29807201
-0.099071093 -0.061830029 0.29745924
-0.093804814 -0.061711539 0.29688931
-0.072922431 -0.053796131 0.25880915
-0.071791731 -0.053366877 0.25674373
0.11089412 -0.058876909 0.28325239
0.10764632 -0.049574517 0.23849933
0.1274111 -0.055274159 0.26591945
0.10172355 -0.027932029 0.13437919
-0.15327007 -0.057050761 0.27705869
-0.14635976 -0.057593949 0.27969599
-0.14129494 -0.058466539 0.28393364
-0.11068954 -0.062425867 0.30316091
-0.11004551 -0.062428005 0.30317196
-0.092229977 -0.060517412 0.29389292
-0.073084183 -0.053411208 0.25938326
-0.07140895 -0.052990865 0.25734183
-0.069724634 -0.052964866 0.25721547
-0.0630337 -0.048649378 0.23625834
0.10847019 -0.056741517 0.27555683
0.10684196 -0.053843293 0.26148197
0.10624474 -0.051135059 0.24832949
0.10787115 -0.049213383 0.23899744
0.11192246 -0.050112527 0.24336365
0.12683737 -0.05475476 0.26590812
0.10661832 -0.040412713 0.19625859
0.10730116 -0.040512148 0.19674139
0.10559382 -0.036703181 0.17824343
0.10550559 -0.028300034 0.13743509
-0.15048712 -0.056578975 0.27738655
-0.14943534 -0.056629796 0.2776354
-0.1455971 -0.056985579 0.27937961
-0.14075223 -0.055775639 0.27344733
-0.1385373 -0.055357572 0.27139819
-0.14146671 -0.058235012 0.28550509
-0.099915825 -0.060800347 0.29808265
-0.096149907 -0.060040135 0.29435515
-0.07609652 -0.052689355 0.25831726
-0.07574553 -0.052829735 0.25900498
-0.068114273 -0.052494772 0.25736269
0.10621705 -0.054156128 0.26550791
0.12822749 -0.055579294 0.2724852
0.12816165 -0.054804064 0.26868451
0.10495262 -0.040035766 0.19628137
0.10559532 -0.040120561 0.19669692
0.10607931 -0.036132649 0.17714553
0.10539891 -0.035025802 0.17171898
0.10405066 -0.027879102 0.13668148
0.10522685 -0.028036814 0.1374547
0.10645933 -0.028051935 0.13752873
-0.15089156 -0.056190357 0.27813202
-0.14160201 -0.055809129 0.27624542
-0.14012408 -0.056887079 0.28158081
-0.14190876 -0.058618728 0.29015204
-0.13590579 -0.056633905 0.28032836
-0.10949928 -0.060945008 0.30166721
-0.10399205 -0.060368054 0.29881141
-0.10056846 -0.060230266 0.29812849
0.10808691 -0.055173725 0.27310014
0.10662322 -0.048181802 0.23849116
0.10995784 -0.048528608 0.24020818
0.10640832 -0.027848063 0.13784346
0.10650021 -0.027795205 0.13758162
-0.15150371 -0.055656042 0.27816445
-0.14909935 -0.055646136 0.27811572
-0.14252324 -0.055400658 0.27688798
-0.14130732 -0.055620864 0.27798882
-0.13355668 -0.055609815 0.27793339
-0.092403501 -0.058913678 0.29444602
-0.076546796 -0.051990736 0.25984576
-0.075845934 -0.0518912 0.25934845
-0.072933726 -0.051791284 0.2588492
-0.067563243 -0.05149319 0.25735894
0.10632928 -0.04972605 0.24852698
0.10807693 -0.049797032 0.24888204
0.1307546 -0.055342898 0.27659923
0.10567129 -0.035689656 0.17837422
0.10340395 -0.027254125 0.13621442
0.10471159 -0.02744429 0.13716455
0.10689166 -0.027552838 0.13770688
-0.13567813 -0.055450827 0.27985868
-0.099147186 -0.059364405 0.29961047
-0.09608224 -0.059054885 0.29804868
-0.093849458 -0.059254132 0.29905337
-0.065541171 -0.049466625 0.24965663
0.10840207 -0.049219288 0.24840793
0.10869353 -0.049111016 0.24786189
0.11145823 -0.048019808 0.24235414
0.1134994 -0.048672959 0.24565089
0.13116916 -0.054978795 0.27747616
0.10579928 -0.035258435 0.17794831
0.1075764 -0.035217624 0.17774254
0.10912503 -0.035474081 0.17903669
0.10625099 -0.027271699 0.13763963
0.10699051 -0.027235275 0.13745609
-0.13628849 -0.055398036 0.28236243
-0.094255194 -0.05813434 0.29631025
-0.093458869 -0.058033284 0.29579431
-0.070420422 -0.050176501 0.25574952
0.10861418 -0.046990473 0.23950937
0.10659402 -0.027091339 0.13808389
0.10741415 -0.027074801 0.13800021
