# .PCD v0.7 - Point Cloud Data file format
VERSION 0.7
FIELDS x y z
SIZE 4 4 4
TYPE F F F
COUNT 1 1 1
WIDTH 1360
HEIGHT 1
VIEWPOINT 0 0 0 1 0 0 0
POINTS 1360
DATA ascii
0.10094391 -0.083350271 0.4349755
0.10350385 -0.0086819213 0.22587308
0.10562094 -0.0079844473 0.22426578
0.10733369 -0.0085671721 0.22618343
0.10314483 -0.0028050297 0.20932283
0.10415129 -0.0018740711 0.20687667
0.1045675 -0.0018841794 0.20697379
0.106987 -0.00089576899 0.20459965
0.10577268 0.011688074 0.16908811
0.10585621 0.011802029 0.16878191
0.1062154 0.011934359 0.16846989
-0.13270937 -0.044946365 0.29034048
-0.084096737 -0.034154031 0.26791587
-0.23198526 -0.25782588 0.87492925
0.056572001 -0.10240377 0.48388207
0.07271681 -0.093870662 0.46246254
0.086534388 -0.094158083 0.46556044
0.092901148 -0.095065318 0.46917546
0.10157912 -0.08511097 0.44250783
0.11541545 -0.088933371 0.45558941
0.13315926 -0.10661914 0.50845766
0.13530742 -0.10518883 0.50477493
0.097324595 -0.025058318 0.27225846
0.10184283 -0.0021426934 0.20830917
0.10478265 -0.0014351821 0.20679826
0.13031961 -0.0038087533 0.21772553
0.10786954 0.012304205 0.16851926
-0.13405973 -0.045317892 0.29289034
0.073255301 -0.092041276 0.46001071
0.074469194 -0.090299495 0.455264
0.086965688 -0.092276193 0.4629522
0.088435732 -0.093265578 0.46600688
0.092654757 -0.091968067 0.46302068
0.1292543 -0.10479905 0.50554168
0.13300382 -0.10701034 0.51244545
0.13485645 -0.10514697 0.50745934
0.19965512 -0.14957553 0.64441657
0.09959808 -0.024687987 0.27305225
0.10183787 -0.02226267 0.26653454
0.10183308 -0.0080274576 0.226096
0.10285788 -0.0027597523 0.21130209
0.10405328 -0.0011514678 0.2069319
0.10550733 -0.0010574417 0.20690611
0.12670054 -0.0033353423 0.21689281
0.12524636 -0.0018996674 0.21257322
0.10853588 0.01254464 0.16876949
-0.13329336 -0.04463248 0.29280216
-0.11278817 -0.047953963 0.30570638
0.057758152 -0.09450423 0.46712601
0.069253169 -0.099028632 0.4819701
0.080071203 -0.091345854 0.46180952
0.092921592 -0.095437966 0.47564366
0.096812405 -0.089930356 0.46054852
0.11262279 -0.08612626 0.45230499
0.13326427 -0.10798334 0.51821136
0.195921 -0.14735146 0.64115763
0.098007083 -0.024290945 0.27313226
0.10234631 -0.0073911445 0.22555006
0.10497066 -0.0076828683 0.22682022
0.10418162 -0.0009037347 0.20731281
0.10476224 -0.00076314813 0.20700715
-0.074185051 -0.027750826 0.25585774
0.070229627 -0.098146573 0.48240152
0.071244784 -0.095462762 0.47485226
0.089006856 -0.0928533 0.47030926
0.096350253 -0.090057731 0.46349365
0.097431704 -0.088557124 0.4593581
0.20100339 -0.14730299 0.64558548
0.10021911 -0.023855003 0.27373603
0.10415848 -0.007057087 0.22608119
0.10593691 7.8156969e-05 0.20585646
0.10719626 3.822838e-05 0.2061812
0.12307266 -0.0016023386 0.21354708
0.12734832 -0.002761214 0.21759269
0.12453859 -0.0010677814 0.2122539
0.12769291 -0.0022802802 0.21626733
0.10845388 0.013098919 0.16882753
-0.1365498 -0.044877086 0.29648909
-0.074046932 -0.027122846 0.25555691
0.036688 -0.090540841 0.45760521
0.057516273 -0.095633008 0.47582453
0.068601631 -0.098525994 0.48605025
0.073312514 -0.089952402 0.46202517
0.091607802 -0.093262009 0.47466218
0.092249796 -0.092585474 0.47281203
0.10963333 -0.083012491 0.44801342
0.13486534 -0.10255649 0.50879294
0.098720811 -0.020541711 0.26539528
0.12078491 -0.034337543 0.30901012
0.10525795 -0.00016295952 0.2075109
0.10563046 -0.00014498871 0.2075213
0.1054984 0.0006742432 0.20512834
0.13011603 -0.0027477469 0.21914753
-0.11195552 -0.046514161 0.307174
-0.083755486 -0.03174261 0.26888263
-0.083399147 -0.032434758 0.27095848
-0.082896821 -0.032483827 0.27118534
0.069367245 -0.09703739 0.48470452
0.086568959 -0.090380765 0.46820262
0.10894256 -0.082618982 0.44934842
0.1910225 -0.14311014 0.63927233
0.1265808 -0.036005802 0.31655568
0.1027266 -0.0062549398 0.22591506
0.12372769 -0.00083039427 0.2136374
0.12569863 -0.0016454891 0.21634176
0.129494 -0.0029580579 0.22080047
0.1070291 0.013545224 0.16897288
-0.084005736 -0.031957578 0.27106786
0.033785574 -0.089372538 0.45912892
0.067980714 -0.095256068 0.48211843
0.068916529 -0.095036097 0.48163143
0.077306986 -0.086496912 0.45801571
0.087421119 -0.089345619 0.46806407
0.088527367 -0.089583717 0.46894813
0.098489292 -0.086405352 0.46130759
0.10875906 -0.080243886 0.44497615
0.1137624 -0.082010597 0.45099479
0.13291773 -0.10251576 0.51430798
0.19152011 -0.14255799 0.64150727
0.1948294 -0.14169449 0.63953298
0.10369764 -0.020286541 0.2684108
0.12486555 -0.0015250632 0.21698458
0.12746808 -0.002000191 0.21881463
0.13146335 -0.0027313537 0.22162881
-0.072494715 -0.024654619 0.25308901
0.03456673 -0.087556615 0.45664668
0.072203077 -0.08738111 0.46247119
0.075040057 -0.087195635 0.46240267
0.080364645 -0.086109914 0.46009755
0.087445781 -0.092588775 0.48039907
0.088445529 -0.088649489 0.46894929
0.090549804 -0.088900827 0.47004542
0.095147006 -0.084875569 0.45894808
0.11335903 -0.080693237 0.44968215
0.13308653 -0.097651392 0.503021
0.098504566 -0.029213971 0.29535168
0.10191239 -0.019694373 0.2678498
0.10024915 -0.0050204657 0.22429198
0.10507697 0.002377643 0.20328586
0.12773199 -0.0070331292 0.23485889
0.12445685 -0.00074617192 0.21576482
0.10849115 0.014114643 0.16924562
0.10864203 0.014330702 0.16863382
-0.083453566 -0.030405236 0.26981241
0.036279198 -0.085679732 0.45410532
0.073284067 -0.086895227 0.4639661
0.091732718 -0.084897935 0.461155
0.13303737 -0.10236427 0.51997632
0.1901866 -0.13885349 0.63793761
0.11844371 -0.030841338 0.30522078
0.10570734 0.0011304629 0.20817178
0.10840417 0.00023872206 0.21127436
0.11159898 -0.0014221901 0.21674386
0.12780167 -0.0093705188 0.24307315
0.12582275 -0.0045922822 0.22855648
0.12633181 -0.00093597668 0.21779002
0.12388557 0.00095404551 0.2117669
0.10617082 0.014425093 0.1687898
0.10707098 0.014445196 0.16888207
0.107955 0.014329935 0.16937351
0.10885622 0.014492267 0.16904424
-0.074897781 -0.025461469 0.25812259
0.034439862 -0.085585475 0.45624989
0.092899673 -0.082781732 0.45777902
0.11437429 -0.080554612 0.45476434
0.13103561 -0.1002682 0.51647586
0.10118634 -0.021518437 0.27617705
0.10184674 -0.018757848 0.26804215
0.12551276 -0.033029821 0.31468493
0.10059909 -0.0045455834 0.22537577
0.101942 -0.0048681749 0.22656713
0.10341512 0.0013871104 0.20813075
0.10488194 0.0014741451 0.20811932
0.12217037 -0.0065219007 0.23493429
0.12461153 -0.0074031875 0.23798032
0.12409299 -0.0060388404 0.23381685
0.12587853 -0.0052469415 0.23175402
0.1251785 -0.0046095573 0.22973134
0.13277094 -0.0043416088 0.23021726
0.12409468 0.0015967132 0.21100846
0.1064265 0.014709787 0.16884325
0.1078034 0.014656924 0.16923468
0.10818783 0.014625926 0.16939247
-0.10659514 -0.041699335 0.30311328
0.035230011 -0.083934344 0.45418715
0.036122926 -0.083561651 0.45321852
0.068112239 -0.087175831 0.46951881
0.078816824 -0.082613342 0.45762035
0.091024041 -0.082097456 0.45814323
0.10818953 -0.079098478 0.45204294
0.13143882 -0.099923588 0.51860327
0.13410452 -0.099131308 0.51667422
0.13445181 -0.098182306 0.51387995
0.13590513 -0.098654002 0.51554525
0.19344635 -0.13576715 0.63690108
0.097909115 -0.020596543 0.27441049
0.10464793 -0.0045317006 0.22725655
0.12390993 -0.0071545634 0.23841426
0.12313119 -0.0028742894 0.22541358
0.12956122 -0.0018827122 0.22352454
-0.11577617 -0.044923104 0.31318206
-0.11390396 -0.044982534 0.31368047
0.068700708 -0.085403591 0.46710339
0.079913296 -0.082150117 0.45916829
0.085335687 -0.081466511 0.45802358
0.11539052 -0.080383733 0.45986715
0.13456939 -0.097455323 0.51479316
0.19453201 -0.13437906 0.63673985
0.10019454 -0.028930308 0.30157882
0.0979174 -0.025515556 0.29085833
0.10039061 -0.020393953 0.2757813
0.12365279 -0.033068791 0.31809822
0.12364852 -0.030498847 0.31032106
0.12833785 -0.024431055 0.29275867
0.10428046 0.0020129448 0.20864028
0.13307387 -0.011485743 0.25439268
0.12425147 -0.0056340192 0.23518223
0.1266018 -0.0064355563 0.2380082
0.12324347 -0.0013995018 0.22219649
0.12345881 0.0019714532 0.21203279
-0.15469223 -0.036717113 0.28349951
0.075166374 -0.083723836 0.46593815
0.077549808 -0.080461428 0.4564085
0.082382277 -0.082492858 0.4634214
0.085952088 -0.080062866 0.45663023
0.11065049 -0.077052683 0.45168111
0.13152528 -0.096844368 0.51552796
0.19311762 -0.13320842 0.63680685
0.1002081 -0.020269936 0.27694947
0.12954956 -0.026514081 0.30098003
0.10124445 -0.0045281798 0.22918074
0.1014911 -0.003768018 0.22690737
0.1029155 0.0024398926 0.20824289
0.1034525 0.0026018859 0.20784123
0.12542415 -0.003148623 0.22910909
0.14446482 -0.0058122016 0.24047476
0.10582165 0.015471819 0.16904704
0.034300257 -0.082406752 0.45774972
0.066983148 -0.087196201 0.47803187
0.0677858 -0.084080808 0.46861836
0.068297274 -0.082883969 0.46503669
0.074860685 -0.08227703 0.4643001
0.079319686 -0.079420365 0.4563064
0.08462134 -0.080427423 0.46030176
0.12937711 -0.094577275 0.51134956
0.13335001 -0.096913837 0.51919305
0.098227113 -0.01952932 0.275933
0.12515731 -0.021231867 0.28576624
0.10341193 0.0027140249 0.20862833
0.1281462 -0.004731263 0.23569104
0.12493785 -0.002520462 0.22836365
0.12669595 -0.002742402 0.22934523
0.12295977 -0.00053921482 0.22195056
0.13293895 -0.0048166635 0.23677377
0.12278327 0.0029789947 0.21113418
0.12731816 0.0017658751 0.21563046
0.10875046 0.015691135 0.16975796
-0.098613143 -0.036821853 0.29707846
0.064661078 -0.091315426 0.49329579
0.072563969 -0.080711298 0.46192902
0.07817369 -0.078276388 0.45537856
0.084474258 -0.081253611 0.46564865
0.095911376 -0.07916899 0.46118057
0.097432129 -0.080074519 0.46423626
0.10023423 -0.017941104 0.27297321
0.13274787 -0.026909329 0.30623525
0.10517832 0.0029550979 0.20933674
0.10514069 0.0041453633 0.20565738
0.10823093 0.015900617 0.16991152
-0.14963903 -0.033538904 0.27996254
-0.11401317 -0.043126617 0.31588453
-0.11135206 -0.041530281 0.3113842
0.078809664 -0.076884307 0.4539738
0.087132908 -0.079986125 0.46504349
0.090340286 -0.080497347 0.46718404
0.092048898 -0.080066912 0.4661414
0.093570285 -0.077708811 0.45907846
0.13274297 -0.094372936 0.51759422
0.10176784 -0.016048424 0.26894262
0.12444603 -0.024832305 0.3001371
0.13269919 -0.028584724 0.31321612
0.13241756 -0.027930822 0.31113622
0.10185455 -0.0029183063 0.22816901
0.1037029 -0.0029601026 0.22861736
0.12484641 0.0030428255 0.21361214
0.12526579 0.0030398308 0.21369395
0.10529533 0.016478827 0.16850498
0.10709263 0.016241949 0.1695506
0.10843353 0.016208891 0.16988422
-0.16479985 -0.0396998 0.29841262
-0.10627446 -0.037401576 0.30133778
-0.083862938 -0.026118655 0.26992607
-0.084274411 -0.026949631 0.27245349
0.073767468 -0.07758373 0.45810559
0.093329825 -0.076543018 0.45823106
0.097239874 -0.023025231 0.29154426
0.099272437 -0.018113399 0.27653515
0.10025546 -0.018006254 0.27636954
0.1001659 -0.015613734 0.26887256
0.12258875 -0.02297271 0.2957601
0.13029338 -0.02769696 0.31186506
0.13075013 -0.027571511 0.31155157
0.13230059 -0.027778596 0.31246731
0.107767 0.016482083 0.16981471
0.10839163 0.01648568 0.1699117
-0.1625191 -0.038542967 0.29711351
-0.1103057 -0.039996702 0.31073806
-0.083063871 -0.026335496 0.27245024
0.034846276 -0.077511989 0.45399773
0.037551068 -0.076708011 0.4519352
0.066904336 -0.081349209 0.47163346
0.068102159 -0.077036284 0.45826268
0.075929895 -0.075332291 0.45425516
0.086324707 -0.075221717 0.45570856
0.10825118 -0.073838726 0.45515391
0.1155504 -0.075915478 0.46295631
0.097706676 -0.021881904 0.28975502
0.098260522 -0.014921615 0.26793844
0.12496711 -0.028403817 0.31501147
0.13495837 -0.026909089 0.31203717
0.10529528 0.0057029543 0.20422688
0.12495862 0.0036666093 0.21404512
0.10683674 0.016732633 0.16977002
-0.085330993 -0.026805473 0.2752746
-0.082485497 -0.030905057 0.28876266
0.039551508 -0.081627555 0.47073647
0.075560138 -0.075826265 0.45860806
0.083926082 -0.073553763 0.4528589
0.11436108 -0.074842058 0.46223205
0.12867779 -0.087983757 0.50637251
0.13054556 -0.088987261 0.50987768
0.10140873 -0.017606046 0.27857283
0.10471813 -0.015358296 0.27202374
0.11337814 -0.021294136 0.29234257
0.12640554 -0.023438545 0.30140311
0.1310295 -0.024968689 0.30705673
0.10408545 -0.0018132727 0.22898345
0.1036163 0.0047234409 0.20818391
0.10415878 0.004641925 0.20853674
0.10624274 0.0052772141 0.20688522
0.10711849 0.017006228 0.16986291
0.10850216 0.016956547 0.17026056
-0.11210248 -0.039684568 0.3134647
-0.080705628 -0.028713595 0.28392965
0.068792164 -0.074924901 0.4574495
0.073717728 -0.075241566 0.45931888
0.077567749 -0.073317416 0.45384979
0.078435659 -0.071297854 0.4475567
0.084542833 -0.070526518 0.44615978
0.099566482 -0.023762383 0.29955444
0.098482601 -0.021643447 0.29260448
0.097334445 -0.016507024 0.2760143
0.10109957 -0.014176326 0.26923287
0.10762762 -0.015902597 0.27587944
0.11198652 -0.011984564 0.26413691
0.13144703 -0.024319153 0.30688879
0.10386315 -0.0010145233 0.22771552
0.10306841 0.0046698451 0.20943828
0.10716372 0.017245583 0.1700232
-0.082651965 -0.024886375 0.27311888
-0.077571452 -0.026864516 0.28036281
0.065663688 -0.081032187 0.47943473
0.084037431 -0.070554443 0.44898432
0.084521547 -0.069751658 0.44648978
0.085203446 -0.069315977 0.44520959
0.087074667 -0.067775652 0.44058758
0.097484834 -0.071039826 0.4528949
0.11337344 -0.073250055 0.46277404
0.1000211 -0.023128737 0.29941061
0.10044956 -0.013642983 0.26901031
0.10526984 -0.014897238 0.2738826
0.12552884 -0.022248233 0.30104172
0.10368419 -0.0011063922 0.2292984
0.1045245 -0.0010708191 0.22933094
0.10281108 0.0049165208 0.2097955
0.10535643 0.0048515117 0.21044932
0.10472602 0.0061119529 0.2062895
0.10640533 0.017557677 0.1698105
-0.11282678 -0.038526196 0.31371364
-0.1065649 -0.035179574 0.30398542
-0.076487347 -0.026911825 0.28251588
0.064958751 -0.081068322 0.48250902
0.069557995 -0.073011473 0.45725286
0.070952505 -0.074010558 0.46072903
0.084230274 -0.070158511 0.45059684
0.13541561 -0.087068334 0.51427388
0.098918244 -0.022171499 0.29794201
0.098752618 -0.013128968 0.2686621
0.11183336 -0.018655181 0.28883252
0.11468975 -0.019059235 0.2906405
0.12370297 -0.022178713 0.30231249
0.12419444 -0.022094989 0.30212733
0.12818234 0.0039135078 0.21869358
0.10504885 0.017855639 0.16953585
0.10594402 0.017877769 0.16962145
0.10692273 0.017731238 0.1702669
-0.11444229 -0.038162187 0.31431791
-0.083890088 -0.023950255 0.27340177
0.065554701 -0.076661192 0.47137919
0.072108418 -0.073695123 0.4628709
0.077509105 -0.07097096 0.45494768
0.081204705 -0.069026046 0.44926354
0.11046631 -0.069165289 0.45486403
0.10029624 -0.012638547 0.26895681
0.1118201 -0.018168561 0.28899565
0.1231539 -0.020855263 0.29974091
0.10683063 -0.0078349439 0.25446007
0.10182235 -0.00032332772 0.22911233
0.10313298 0.005630414 0.20995028
0.10521115 0.0058280709 0.20967209
0.12583594 0.0047619333 0.21677274
0.10854924 0.01797461 0.17069584
0.037102558 -0.075860403 0.46679384
0.063489765 -0.075661995 0.47079894
0.067852475 -0.072019309 0.45962131
0.075159036 -0.073259301 0.46497798
0.086796515 -0.068235502 0.45055425
0.096671134 -0.019670552 0.29301158
0.10030032 -0.012201445 0.26915479
0.11242762 -0.018153209 0.29081559
0.1173256 -0.017474979 0.28945535
0.10584389 -0.0067393309 0.25221834
0.1122322 -0.0090111904 0.26079711
0.10524269 0.0059173605 0.21060048
0.10605729 0.0059162183 0.21074812
0.11269044 0.0038862885 0.21857625
-0.078625172 -0.027254781 0.28884423
0.067248657 -0.074476242 0.47062469
0.067981236 -0.073879018 0.46878186
0.07866665 -0.071758524 0.46367002
0.084275305 -0.069680579 0.45779991
0.091422334 -0.068891034 0.45645735
0.093485281 -0.069145955 0.45766389
0.13907519 -0.086143121 0.52187085
0.11274868 -0.017915491 0.29187262
0.10470848 0.0063225115 0.2103973
0.10564768 0.0062520457 0.21079606
0.10975903 0.0055764345 0.21375532
0.10525831 0.018674569 0.16969903
0.1083121 0.01859034 0.17051767
-0.10601108 -0.033351433 0.30617225
-0.10544137 -0.033394314 0.30641565
-0.082041822 -0.02222183 0.27341169
0.063079193 -0.070597999 0.46007669
0.075446874 -0.072341628 0.46807191
0.080382869 -0.072441921 0.46928218
0.096400961 -0.067039937 0.45415926
0.1075436 -0.068012729 0.45937333
0.11147694 -0.066940911 0.45650691
0.097512804 -0.01080036 0.26730537
0.11901015 -0.016479129 0.29001015
0.10363968 0.00076643052 0.2299224
0.1034193 0.0066966317 0.21015956
0.10413219 0.0065249875 0.21085712
0.10562507 0.0074751973 0.20796174
0.12204504 0.00011716032 0.23535
0.11779033 0.0039310358 0.2219097
0.11923148 0.0034180498 0.22387183
0.1240752 0.0027498931 0.22695446
0.12701331 0.0017477496 0.23080915
0.12801304 0.0031878427 0.22619681
0.10673524 0.018714685 0.17077696
-0.11062811 -0.034329396 0.31069142
-0.10658095 -0.034152359 0.31081969
-0.077410966 -0.023489976 0.28030154
0.059616081 -0.076439671 0.48206428
0.06009645 -0.072214767 0.46799874
0.065251239 -0.070484728 0.46312192
0.089070804 -0.06663771 0.45447969
0.095113039 -0.070147902 0.46731299
0.10309106 -0.010959321 0.27048218
0.11668152 -0.015184397 0.28705493
0.10661218 -0.0074200793 0.25925478
0.10587691 -0.0055309148 0.25279602
0.10506131 -0.0039890874 0.24748629
0.10289009 0.0070990715 0.2099597
0.10710964 0.006791255 0.21174257
0.11929666 0.0030755522 0.22635902
0.12905759 0.0028512233 0.22884914
0.12531033 0.0069393348 0.21448836
0.12823249 0.0065647019 0.21626395
0.13076141 0.0060089934 0.21857567
0.10745706 0.018939825 0.17111301
-0.15280269 -0.028055726 0.28410599
-0.082118548 -0.021240903 0.27374852
0.054342262 -0.11172267 0.60335851
0.060118049 -0.074269481 0.47804874
0.062337209 -0.069696963 0.46302021
0.06601575 -0.069263421 0.46221542
0.070590876 -0.070873581 0.46846461
0.10283535 -0.065257706 0.45528266
0.10734729 -0.061396576 0.44306377
0.13258134 -0.082271352 0.51799089
0.099295713 -0.010491537 0.26990512
0.11889318 -0.019216519 0.3028397
0.10451777 -0.0010595726 0.23902133
0.10335309 0.0073996023 0.21027786
0.10760316 0.006863446 0.21284589
0.12505114 -0.00068367756 0.24142277
0.11961566 0.0028234604 0.22862069
0.12555106 0.0069851689 0.21564206
0.12565546 0.007124492 0.21519108
0.13087539 0.0064884555 0.21826962
0.13041842 0.0068665394 0.21691234
-0.11204644 -0.03277909 0.30942631
-0.10597413 -0.031550299 0.3063401
-0.081936032 -0.019676669 0.27030903
0.036651351 -0.070297159 0.46355167
0.056610469 -0.10973825 0.60113001
0.071342461 -0.069625348 0.46748844
0.084317446 -0.068411402 0.46569052
0.08883594 -0.069481269 0.47013506
0.093540221 -0.06617371 0.45974079
0.095506929 -0.064837366 0.45555332
0.10214756 -0.064847894 0.45677984
0.10711542 -0.063904874 0.45446661
0.10748634 -0.059683975 0.44019234
0.11002775 -0.061683532 0.44744125
0.13458706 -0.082449019 0.52239466
0.13631509 -0.080710992 0.51679933
0.099417724 -0.010145219 0.27043885
0.10374235 -0.010561099 0.27262715
0.11478958 -0.013720006 0.2853398
0.10670267 -0.0045944341 0.25288615
0.1037436 -0.00047905638 0.23837391
0.10265917 0.0007945915 0.23385201
0.10196852 0.0017970555 0.23032254
0.10350557 0.0022302759 0.22912623
0.10290252 0.0075333035 0.21100111
0.10314494 0.0076239887 0.21073653
0.13276377 0.00055613171 0.24005908
0.12567234 0.0047461907 0.22455227
0.12596218 0.0060039782 0.22033109
0.12682609 0.0067594168 0.21791917
0.12690322 0.0069119586 0.21741469
0.12975261 0.0078475075 0.21474715
0.10567056 0.019538794 0.17070889
-0.11322992 -0.03395047 0.31535378
-0.10595283 -0.030944075 0.3063747
0.056415774 -0.10809569 0.59958923
0.066423431 -0.066489808 0.4590151
0.085264601 -0.065946832 0.46054599
0.10332665 -0.061875165 0.449862
0.11780654 -0.065700211 0.46555537
0.097466931 -0.012073463 0.27838838
0.09869305 -0.012621474 0.28048402
0.10104785 -0.012712296 0.28121874
0.11527585 -0.013192298 0.28542045
0.11661295 -0.013326071 0.28611884
0.12764129 0.00092166755 0.23934688
0.12462152 0.0061857179 0.22079045
0.12713882 0.0067790621 0.21921299
0.12995538 0.0070297127 0.21886191
0.10510194 0.019900063 0.17034943
-0.164529 -0.032019246 0.3016291
0.05098661 -0.1056234 0.5942167
0.068299778 -0.065675229 0.45964873
0.071243882 -0.065836936 0.46073768
0.075475268 -0.066626936 0.46422443
0.10232711 -0.062281769 0.45409337
0.10706928 -0.058814734 0.44299912
0.10922571 -0.059203204 0.4447273
0.11152719 -0.06085936 0.45085067
0.13434383 -0.077955432 0.51389444
0.10073948 -0.012006734 0.28052095
0.097779095 -0.0088211168 0.26900637
0.098703012 -0.0091233002 0.27021495
0.10485263 -0.010488288 0.27602938
0.10454538 8.0590042e-05 0.23954549
0.10261185 0.0015765718 0.23404022
0.10301153 0.0081425309 0.21148098
0.10305334 0.0083416151 0.21080248
0.1281765 -0.0016019526 0.24960956
0.12327701 0.0018533772 0.23681536
0.12773217 0.0005654277 0.24205868
0.12274376 0.0041361731 0.22885114
0.12760195 0.0065446049 0.22142635
0.12847733 0.0072826291 0.21904077
0.13068324 0.0074267765 0.21894199
0.12996182 0.0080876034 0.21653397
0.12867494 0.0088032978 0.21383502
0.12744626 0.009489689 0.2112475
0.12801975 0.0094201649 0.21159047
0.10447725 0.020283544 0.16989852
0.10731374 0.019911025 0.17169431
-0.081646025 -0.019217554 0.27432826
0.058261294 -0.10383046 0.59342837
0.084840789 -0.063707493 0.45893797
0.088467993 -0.063407533 0.45855311
0.10237882 -0.061588485 0.45475638
0.11545803 -0.062509522 0.46032253
0.1004561 -0.01176495 0.28142613
0.1016974 -0.0089101633 0.27173916
0.1103715 -0.010426837 0.27857587
0.10397087 0.00053261255 0.23936662
0.10478761 0.0028374456 0.23151235
0.10641365 0.0086202221 0.21172962
0.12928964 0.0063438127 0.223775
0.12920783 0.0065692761 0.22297731
0.12982656 0.007955987 0.21827479
0.1287441 0.0089387 0.21466702
-0.16266532 -0.030227525 0.30000812
-0.082723886 -0.018676545 0.27413303
0.059625585 -0.1033176 0.59601647
0.064263128 -0.065981627 0.46628141
0.067994975 -0.06352102 0.45835334
0.071363516 -0.062613986 0.4557929
0.089825459 -0.061795183 0.45628357
0.10781158 -0.060531177 0.45513049
0.10138303 -0.01115051 0.28125963
0.10263717 -0.0083620539 0.27173507
0.11250015 -0.014299053 0.29429111
0.11680428 -0.016523529 0.30285296
0.11309663 -0.01068969 0.28177601
0.11263204 -0.0092514344 0.27666149
0.10287391 0.0086662592 0.21222372
0.12942915 0.00098259817 0.24392064
0.11170113 0.016935585 0.18490663
0.10729579 0.020439936 0.17185014
0.10829183 0.020426529 0.17207824
0.05188176 -0.10153884 0.59251636
0.081393361 -0.0628324 0.46152556
0.083671376 -0.063450657 0.46411923
0.084819987 -0.063762724 0.46542805
0.089933172 -0.061202426 0.45733956
0.097181343 -0.060709741 0.45692483
0.099836692 -0.059183072 0.45203033
0.10626727 -0.061403655 0.46102616
0.10966175 -0.058584638 0.45171291
0.11508745 -0.014809175 0.29847172
0.10207035 0.0030364003 0.23322552
0.12721461 0.0066266861 0.22515978
0.12647124 0.0073397495 0.22251181
0.12741715 0.0078642126 0.22083633
0.12780985 0.008062942 0.22020783
0.105688 0.020829853 0.17119455
0.10641527 0.020794891 0.17145047
0.10738361 0.020666791 0.1720783
-0.15960097 -0.027855836 0.29648599
-0.10809243 -0.029987616 0.31347427
-0.10568061 -0.02915965 0.31097665
-0.082969055 -0.017397676 0.2733832
0.006102934 -0.09824793 0.57664603
0.007345133 -0.097454116 0.57405603
0.052973762 -0.10004884 0.59161216
0.10493744 -0.061381415 0.46387169
0.13259926 -0.074898504 0.51690924
0.099763535 -0.0077470597 0.27255595
0.10379744 0.0017968391 0.23941873
0.10276387 0.0040809857 0.23112223
0.10626762 0.0097004371 0.21181722
0.12567261 0.0060968208 0.22815782
0.12685949 0.0075228056 0.22331375
0.12360255 0.0094944835 0.21571936
0.1255137 0.0099191917 0.21456188
0.10988209 0.018514551 0.18119386
0.1054361 0.021063445 0.17133354
-0.10651377 -0.029165 0.31306374
0.01574011 -0.095728345 0.57353175
0.052766453 -0.098359242 0.58973593
0.06056764 -0.099529468 0.59535259
0.12826972 -0.072782241 0.51213378
0.1296984 -0.073186077 0.51384002
0.096893363 -0.013048635 0.29277018
0.1128602 -0.0084043331 0.27909333
0.10753184 -0.00068634376 0.2505163
0.1027149 0.002557456 0.2380323
0.10352702 0.0023467494 0.23893474
0.1273957 0.0064839972 0.22852172
0.12758411 0.0069874651 0.22675596
0.12490833 0.0096336305 0.21680243
0.12775233 0.010695893 0.21352579
0.10571853 0.021337839 0.17142598
0.10810317 0.021160109 0.17249942
-0.15862405 -0.0262361 0.29516324
-0.11561061 -0.030885162 0.31983635
-0.10666976 -0.028675912 0.31352413
-0.082303621 -0.017125264 0.27639705
0.010847338 -0.096288264 0.57876986
0.056274228 -0.096705116 0.58863974
0.11589465 -0.06132818 0.47216374
0.098085985 -0.0064103859 0.27102205
0.099470384 -0.0066387854 0.27209988
0.11141324 -0.0099950014 0.286392
0.12692159 0.007636969 0.22572312
0.12694229 0.00781844 0.22507282
0.11335984 0.017696207 0.1869829
0.10639763 0.021459749 0.17214097
-0.11179687 -0.028982865 0.31596017
-0.078842178 -0.019751327 0.28854001
0.010809559 -0.094133966 0.57513499
0.048720129 -0.10069538 0.60596222
0.10060678 -0.0086793499 0.28152117
0.10012801 -0.0062797051 0.27272135
0.10127888 -0.0063286745 0.27311176
0.11010014 -0.0078737717 0.2803517
0.11147629 -0.0084203053 0.28258988
0.11094283 -0.0076919845 0.27984738
0.11397987 -0.0040999786 0.26736927
0.10407405 0.0052180942 0.23171175
0.10438053 0.0053006713 0.23146863
0.10579241 0.010739328 0.21198671
0.1267695 0.0074860277 0.22767468
0.12688118 0.0093090115 0.22107732
0.12774673 0.010012503 0.21868362
0.12760964 0.010756279 0.21595819
0.11647881 0.016617237 0.19262415
0.10649222 0.021684924 0.17238149
0.107461 0.021561366 0.17300901
0.10774325 0.021576649 0.17300585
0.10814796 0.021666983 0.17275265
-0.15876716 -0.025455974 0.29665178
-0.082828373 -0.016481714 0.27791399
-0.082236148 -0.021040285 0.29469863
0.011967775 -0.09250772 0.57359385
0.055602394 -0.096979432 0.59804577
0.066130243 -0.098338529 0.60497046
0.18350425 -0.10042244 0.63436985
0.18505673 -0.10062311 0.63539153
0.1032672 -0.0061357049 0.27459583
0.11221963 -0.0029165712 0.26448199
0.10517035 0.005224633 0.23339452
0.10564601 0.011147304 0.21181893
0.12565422 0.0071630049 0.23010483
0.12610491 0.0075562228 0.22875005
0.12771669 0.011717753 0.21382667
-0.083138168 -0.014935158 0.27416408
0.022536125 -0.087969437 0.56304121
0.055263977 -0.09949249 0.61160845
0.06587939 -0.096657656 0.60313553
0.10136274 0.0062239328 0.23052798
0.10573467 0.011234958 0.21287175
0.12615761 0.0078970548 0.22897784
0.1209576 0.015476033 0.20007385
0.10631482 0.022153767 0.17273372
0.10772435 0.022108931 0.17316121
-0.15394747 -0.025199795 0.30105111
0.059816644 -0.096600674 0.60621423
0.097252309 -0.006875217 0.27993181
0.098486803 -0.0073886584 0.28206995
0.097909875 -0.0045103868 0.27127078
0.099755697 -0.0050644996 0.2736741
0.11279992 -0.006792461 0.28253019
0.11249177 -0.0028536848 0.26784235
0.10282134 0.0062740869 0.2321308
0.1279159 0.010808299 0.21997856
0.12791762 0.010979331 0.21934366
0.12757695 0.01260555 0.2132393
0.10748371 0.021357326 0.17697628
0.10770456 0.022259226 0.17366734
-0.1677046 -0.027078291 0.3077715
0.098670542 -0.011106919 0.29795304
0.10119084 -0.0068487185 0.28248563
0.11258994 -0.0031209744 0.27067006
0.11262816 -0.0021818131 0.26716152
0.10141712 0.0069311066 0.23094575
0.103541 0.0067492276 0.23202489
0.10386982 0.011815434 0.21312223
0.10499591 0.011867613 0.21313821
0.12638128 0.0087207453 0.22892942
0.12708212 0.0088013839 0.2287592
0.12832433 0.0088402368 0.22884679
0.1277402 0.011565498 0.21853565
0.11234831 0.019522427 0.18586296
0.10826533 0.022673082 0.17330314
-0.16068284 -0.023788447 0.29903013
-0.15240034 -0.023584019 0.29981855
-0.084166914 -0.014547058 0.27857262
0.023401707 -0.082718693 0.55601424
0.060972501 -0.094353773 0.60698313
0.098158747 -0.010210605 0.29654187
0.09935414 -0.0066909124 0.28348863
0.10076861 -0.0064878762 0.28298876
0.09955842 -0.0040304069 0.27349019
0.11299086 -0.0070771365 0.2875132
0.10311272 0.0071074883 0.23213957
0.1033935 0.012185075 0.21303652
0.12497435 0.0091156345 0.22867996
0.12925167 0.0093722632 0.22851725
0.12862661 0.0099922298 0.22606066
0.12722157 0.011948154 0.21841714
-0.10515352 -0.023433978 0.31046733
-0.083775342 -0.013733644 0.27762327
-0.082297668 -0.013459242 0.27685893
0.059492044 -0.092749067 0.60514903
0.11225995 -0.052786145 0.46316734
0.09709055 -0.0057974323 0.28163028
0.11199227 -0.0035195965 0.27578527
0.10340054 0.012720884 0.2124089
0.10585415 0.012721346 0.21287075
0.12482926 0.0091584828 0.2300043
0.11322789 0.019496266 0.1885035
0.10844116 0.023251371 0.17332025
-0.10446543 -0.023662593 0.31382713
-0.082102664 -0.012793657 0.27641338
0.097348973 -0.0055293613 0.28261903
0.10137103 -0.0032629129 0.27469566
0.11311579 -0.0037551511 0.2788102
0.10999335 -0.00088190008 0.26720613
0.11239731 -0.0010516969 0.26831293
0.11350782 -0.00016677052 0.26513231
0.10516328 0.0074756956 0.23425823
0.10344944 0.012830837 0.21340913
0.10630996 0.012839813 0.21391757
0.12770009 0.010004661 0.22884159
0.10963576 0.021132719 0.18276484
0.10824542 0.022401059 0.17764013
-0.16095008 -0.022464847 0.30083752
0.10941738 -0.0017118966 0.27215818
0.11220195 -0.00050106342 0.26801109
0.10363633 0.0081840847 0.23282643
0.10476348 0.013129121 0.21393731
0.1063675 0.013150277 0.21416108
0.12320116 0.0098203765 0.23023124
0.12555744 0.010148317 0.22941373
0.12612905 0.010466105 0.22829472
0.10786601 0.022195974 0.17950077
0.10606131 0.023702204 0.1733381
-0.1065276 -0.02257691 0.31403205
-0.081921451 -0.01162116 0.27607128
-0.077442445 -0.010733036 0.27346912
0.011549683 -0.083286978 0.57303637
0.099333785 -0.010585473 0.30669576
0.099737749 -0.0047018733 0.28386071
0.100394 -0.0047671441 0.28423971
0.097488329 -0.0015570576 0.2711834
0.10321692 -0.0025047392 0.275969
0.11171775 -0.0033460229 0.28087059
0.11111138 -0.0019664303 0.27538222
0.10880747 6.4809094e-05 0.26703146
0.11158951 -0.00032700607 0.26908889
0.10307731 0.013284957 0.21445179
0.10496702 0.013369553 0.21448354
0.12440231 0.010056912 0.23110011
0.1257977 0.010225751 0.2307096
0.10800791 0.022907551 0.17792082
0.099457651 -0.0087635629 0.30177739
0.10893925 -0.0032447614 0.28193095
0.11224558 -0.0035533363 0.28377721
0.11198734 -0.0017137895 0.27650568
0.11079345 0.00026483816 0.26850849
0.099681728 0.0096104359 0.22968505
0.1034223 0.01405241 0.21296431
0.10416273 0.014089887 0.21295895
0.12282347 0.0095481146 0.2343722
0.12216581 0.0100312 0.2323495
0.10646059 0.023377299 0.17693861
-0.1121388 -0.022955557 0.31935194
-0.10627524 -0.021632265 0.31524459
-0.10577726 -0.021722974 0.31569949
0.10581207 0.01403873 0.21493635
0.10679488 0.013967114 0.21540888
0.1227173 0.0099674324 0.23430873
0.12214813 0.01040865 0.23245281
0.12526126 0.011362844 0.2292762
-0.1175103 -0.021714788 0.31587753
-0.10550592 -0.020943206 0.31512138
-0.084331378 -0.010599308 0.27794123
-0.083214469 -0.010982357 0.27968577
0.046257522 -0.085067578 0.60038233
0.095668443 -0.0076367748 0.30095249
0.098160774 -0.0033913259 0.28449324
0.10046884 -0.0011453155 0.27597696
0.10205287 -0.0011075984 0.27613291
0.10253439 -0.00070989749 0.27463865
0.10661425 -0.0019145155 0.28023547
0.11163942 0.00095880305 0.26974216
0.10258356 0.014733406 0.21302129
0.10392176 0.014488795 0.21425629
0.10538597 0.024063909 0.1763297
0.10806534 0.024733773 0.17417493
-0.1179556 0.0059708608 0.20690416
0.096925013 -0.0076496643 0.30346179
0.097638719 -0.002956925 0.28471911
0.10119841 -0.00081542227 0.27679417
0.10710106 0.0002761111 0.27354929
0.11359821 -0.00065493432 0.27855757
0.12445656 0.01113116 0.23324472
0.1268287 0.011639924 0.23165877
0.10812054 0.025089085 0.17390923
-0.15946259 -0.018354202 0.2991156
-0.15767431 -0.018093234 0.29840568
-0.1229425 -0.021830048 0.32034346
0.097598873 -0.0020655999 0.28318757
0.1006634 -0.00037289292 0.27691761
0.10693838 -0.00051192835 0.27870643
0.10267038 0.014976793 0.21503304
0.1070949 0.024580371 0.17693248
0.10660155 0.025427304 0.17339998
0.10811051 0.02546433 0.17354444
-0.1610533 -0.018476134 0.3017427
-0.15816909 -0.01774106 0.29930052
0.021885658 -0.074861996 0.56827909
0.055544082 -0.083942175 0.61202341
0.097112596 -0.045973729 0.46482852
0.18057159 -0.084827371 0.64014316
0.18123157 -0.084253885 0.63792634
0.095413998 -0.0054986663 0.29889968
0.09755411 -0.0015715729 0.28325257
0.098537423 -0.0018630183 0.28463769
0.10042107 -0.0019898585 0.28552559
0.10555946 0.00011212185 0.27793264
0.10856367 0.00094448717 0.27511582
0.10920215 0.00088954571 0.27546597
0.11315559 0.00050567824 0.27781102
0.11310656 0.0011518213 0.27515787
0.099299207 0.011411225 0.23047817
0.10329709 0.010498554 0.23499511
0.10391061 0.015508384 0.21461898
0.10640857 0.015500847 0.21513887
0.1204272 0.011657619 0.23360991
0.12512231 0.012154812 0.23249561
0.12182261 0.014353429 0.22285371
0.10662208 0.025462044 0.17442702
0.10779023 0.025616774 0.17402232
-0.11519753 0.0084660742 0.20208573
-0.11893873 0.0068887803 0.20785731
-0.12015767 0.005957589 0.21145967
-0.11850322 0.0056490232 0.21305823
-0.15651333 -0.016449871 0.2967582
-0.12698686 -0.023695733 0.33246341
-0.099298671 -0.015745865 0.30511129
-0.080434822 -0.011757975 0.29236928
0.088375568 -0.00051818648 0.27921164
0.1029034 0.00015438374 0.27929503
0.1048722 0.0006496266 0.27763933
0.10489637 0.015774895 0.21523817
0.11959179 0.012190502 0.2329185
0.12145266 0.012546531 0.23181577
0.12568572 0.013015447 0.23071446
0.10660137 0.025732886 0.17448714
0.10677088 0.025894787 0.17385256
0.10681725 0.025987845 0.1734781
-0.10234249 -0.015170757 0.3045941
-0.10143091 -0.015364137 0.30557889
-0.097673655 -0.01451047 0.30276924
-0.077183172 -0.0064485422 0.27327192
-0.079456106 -0.010490838 0.28964275
0.02050312 -0.071131714 0.56173229
0.033435531 -0.071511246 0.56586719
0.050068196 -0.080754355 0.60761613
0.096304625 -0.043438733 0.46147746
0.094844259 -0.0040892009 0.29744953
0.095154703 -0.003878528 0.29663455
0.09751489 -0.0010071684 0.28515235
0.099235319 -0.0010213465 0.28555155
0.10473147 0.011219868 0.2357004
0.11867515 0.012756335 0.23206186
0.12242536 0.013069063 0.23150188
0.1228962 0.014808627 0.22435641
0.10769284 0.025183285 0.17818132
-0.1199692 0.0068079429 0.21134746
-0.14875132 -0.01693552 0.30528426
0.049357932 -0.077217348 0.59760183
0.060937189 -0.078210346 0.60406762
0.063064203 -0.057093255 0.51586306
0.094946228 -0.043332264 0.46443757
0.094819762 -0.0035831032 0.29758775
0.098626591 -0.000526499 0.28551495
0.096484743 0.0030806302 0.26995128
0.10208134 0.0012349569 0.27880806
0.10518222 0.0013670388 0.27886975
0.10587705 0.0012811193 0.27936774
0.10119393 0.012001443 0.23344651
0.10265788 0.011949769 0.23395367
0.10382368 0.011821602 0.23472317
0.10329207 0.016050462 0.21686918
0.10462601 0.016757216 0.21416779
0.1050977 0.016730925 0.21437173
0.10639723 0.025325783 0.17855769
0.1067178 0.02544466 0.178122
-0.12094568 0.0072851339 0.21085319
-0.11993865 0.0070551019 0.21202776
-0.097158857 -0.012659041 0.30002397
-0.07792601 -0.006325833 0.27704823
0.046545092 -0.075063318 0.59284556
0.056952197 -0.076638423 0.60158777
0.095007151 -0.042630047 0.46520728
0.10350816 -0.042484861 0.46628773
0.098288551 -0.00021437554 0.28630444
0.10260476 0.0017078241 0.27902773
0.10635378 0.0017827054 0.27945811
0.10634974 0.0027574613 0.27533099
0.10956686 0.0018480937 0.27982193
0.10323348 0.016419264 0.21687591
0.11706294 0.013790871 0.23075923
0.11931921 0.013601097 0.23201263
0.12379984 0.013795526 0.23208272
-0.12088727 0.0073936074 0.21213189
-0.11875024 0.007433576 0.21238928
-0.095592 -0.011479931 0.29779136
-0.090615921 -0.010167393 0.29318252
-0.075401857 -0.0059598843 0.27826223
0.03372477 -0.071173988 0.57859176
0.046270486 -0.073115639 0.58939523
0.054078776 -0.074535683 0.59702295
0.1014799 0.00039874858 0.28652757
0.10502365 0.0023714209 0.27881336
0.10617435 0.0023443962 0.27915913
0.10880141 0.0039691492 0.27274707
0.10250388 0.012546016 0.23486133
0.10400677 0.017158974 0.21546331
0.12320706 0.013863013 0.23338272
0.10715117 0.026284454 0.17712542
0.10746063 0.026933832 0.17441417
-0.12013842 0.0079106996 0.21180975
-0.091972567 -0.0097420961 0.29351988
-0.089735486 -0.009049044 0.29098371
-0.077385195 -0.0064530252 0.28228509
0.022607313 -0.066687696 0.56187505
0.10437811 -0.040819883 0.46688899
0.10539741 -0.040882163 0.46736264
0.10122715 -0.0045274212 0.30991575
0.098715499 0.00081558421 0.28639412
0.1039244 0.012672098 0.23636651
0.11646423 0.014585535 0.2306459
0.11687894 0.014599397 0.23066993
0.1180661 0.014480799 0.23141943
0.11997826 0.014616445 0.23121999
0.125091 0.013676362 0.23629746
0.10773266 0.026252957 0.1786291
0.10660375 0.026946384 0.17541483
0.10664792 0.02714394 0.17457278
0.10781325 0.027188819 0.17461406
-0.11911937 0.0073049115 0.21641387
-0.14892107 -0.009217442 0.28219768
-0.14803751 -0.01484106 0.30681646
-0.11505679 -0.010729576 0.2956115
-0.11710856 -0.013439218 0.30697334
-0.11567049 -0.015036451 0.31420532
-0.11613591 -0.015653215 0.31679156
-0.11243239 -0.016077176 0.31938267
-0.091452733 -0.0088628326 0.29226825
-0.082169592 -0.0080654928 0.29067928
-0.076758869 -0.0058775134 0.28226322
0.057474896 -0.071702614 0.59545934
0.061455972 -0.072409265 0.59933472
0.091057442 -0.038967602 0.45997971
0.097806334 0.0015078614 0.28543821
0.10140032 0.006330308 0.26520652
0.10764021 0.0046012816 0.27398127
0.11864738 0.014976051 0.23111731
0.11983628 0.016418565 0.22508834
0.12047244 0.017793752 0.21924025
0.12133983 0.018396923 0.21679415
-0.12180487 0.0085236924 0.21234359
-0.11771847 -0.011576521 0.30130869
-0.097639389 -0.01069811 0.30153298
0.022725217 -0.067484215 0.57496023
0.056378778 -0.071201429 0.59809119
0.06016282 -0.071341194 0.59947217
0.06432151 -0.053346667 0.52141422
0.10387459 -0.039739534 0.46977803
0.097613566 0.0017283931 0.28667894
0.098116919 0.0017710596 0.28659365
0.098628961 0.0018078806 0.28653666
0.10034195 0.0038976639 0.2777212
0.1002382 0.0055912044 0.27027398
0.1058768 0.0063138027 0.26825014
0.10230798 0.0096362093 0.25295764
0.10506486 0.016985491 0.22129233
0.11705412 0.015077857 0.23209062
0.11720825 0.015198078 0.23159488
0.11851417 0.015395529 0.23099437
0.11983063 0.015230553 0.23198467
0.10573709 0.026899921 0.17795591
0.10665704 0.026926501 0.17802632
0.10703612 0.026911873 0.17816737
-0.11883496 0.008961983 0.21281005
-0.11810224 0.008478743 0.21509716
-0.16786113 -0.012013197 0.29561159
-0.11999255 -0.011569123 0.30340928
-0.11477232 -0.015115388 0.32016358
-0.096202493 -0.0099837501 0.30124706
-0.074236624 -0.0027080239 0.27353624
0.052904718 -0.071107455 0.60208279
0.05908322 -0.070867486 0.60228163
0.1000458 0.0020988262 0.28781208
0.097172678 0.0090176854 0.25661516
0.10648004 0.0069945091 0.26746428
0.10302588 0.0099267978 0.25378639
0.10086332 0.014401258 0.23354939
0.10379454 0.014086513 0.2355395
0.10355607 0.018532304 0.21582165
0.1196724 0.017996347 0.22147971
0.11952417 0.019127401 0.2164451
0.11940412 0.019760322 0.21362013
0.11899549 0.02019221 0.21162604
0.10587006 0.027126495 0.17827013
0.10613088 0.027258391 0.17774002
0.10697176 0.027935959 0.17491348
-0.11827873 0.0094068488 0.2127533
-0.11855127 0.0085545555 0.21650244
-0.12755196 -0.01031122 0.29888338
-0.12541234 -0.0095631164 0.29598221
-0.11710237 -0.014743408 0.32081148
-0.11232536 -0.014206903 0.31939551
-0.10716869 -0.014169496 0.32028493
-0.073060825 -0.0013985307 0.27025837
0.053139228 -0.070937723 0.60657042
0.10367192 -0.037947096 0.46964011
0.098667905 0.0027193124 0.28706199
0.10077126 0.0048744325 0.27787137
0.10125687 0.0049125128 0.27780098
0.10138389 0.005800684 0.27386168
0.097271644 0.0096609611 0.25578481
0.10042942 0.0098561402 0.25556067
0.1042809 0.0096801221 0.25713563
0.10068654 0.014415592 0.23525818
0.11885793 0.020850977 0.21025093
0.10680842 0.027524501 0.17798893
0.10659748 0.027906038 0.17624167
-0.11965392 0.0097381128 0.21280667
-0.11907653 0.009800273 0.21264575
-0.17128673 -0.01195952 0.29993057
-0.12879884 -0.0089528542 0.29513276
-0.12662774 -0.011630587 0.30764326
-0.12247977 -0.012007734 0.31019643
-0.1209439 -0.01249063 0.31268796
-0.12109343 -0.013222102 0.31595337
-0.11591369 -0.015635269 0.32789147
-0.099680752 -0.010224967 0.30685863
-0.00084602955 -0.072301507 0.60687995
0.056863651 -0.069819205 0.6075781
0.06329903 -0.070113473 0.61022848
0.060687769 -0.049936332 0.51878697
0.10828444 -0.037904061 0.4743771
0.094529122 0.00053198746 0.29837933
0.098830432 0.0089103617 0.26151791
0.098067798 0.010188939 0.25560054
0.097648919 0.011765881 0.24840964
0.10218978 0.014728902 0.23599529
0.11838224 0.01637054 0.23193319
0.11769786 0.018788949 0.22089662
0.12132258 0.019171739 0.21991798
0.12076514 0.019516733 0.21824861
0.1182767 0.020819476 0.21186742
0.11806809 0.021032529 0.21086459
0.11804946 0.021317245 0.2095782
0.10705846 0.027924787 0.17754604
-0.11828472 0.010183299 0.21291158
-0.15051906 -0.007857549 0.2882725
-0.12197886 -0.011797074 0.31208917
-0.12066875 -0.013063874 0.31812057
-0.11562189 -0.015220105 0.32896826
-0.075571053 -0.0020809232 0.27751169
-0.087578163 -0.011397273 0.31738806
0.04773131 -0.067795552 0.60181642
0.059344724 -0.068742812 0.60852623
0.10006715 -0.035612687 0.46631199
0.10522419 -0.035982359 0.46906012
0.10787069 -0.036695413 0.47284946
0.11099815 -0.037845083 0.47872382
0.093082391 0.0016145394 0.29560021
0.099541523 0.009223667 0.26233885
0.10362714 0.01305775 0.24575078
0.1034808 0.015570722 0.23429461
0.10310091 0.019216048 0.21764109
0.10389677 0.019583015 0.21613739
0.11440796 0.016706716 0.23139007
0.11479469 0.016731849 0.23135574
0.11934378 0.019159673 0.22125807
0.12056529 0.019182215 0.22140816
0.12078489 0.019255996 0.22111794
0.12143476 0.019177845 0.22160763
0.12033109 0.020155447 0.2169344
0.11863314 0.021167735 0.21198037
0.10545895 0.028173102 0.17740268
0.10611219 0.028176876 0.17752041
0.10666101 0.028109528 0.17794003
-0.13191314 -0.0082013458 0.29630929
-0.13186918 -0.0084464801 0.29744354
-0.13019338 -0.009583964 0.30301189
-0.12679128 -0.011149126 0.31090203
-0.10804997 -0.01213594 0.31932688
-0.091901079 -0.0069181188 0.29873863
-0.077168562 -0.0026281355 0.28211406
0.0055951164 -0.065964803 0.58998233
0.035305418 -0.060590189 0.57149404
0.053419609 -0.069023319 0.61396116
0.059076373 -0.044703215 0.50352824
0.096654028 0.00087789609 0.30216151
0.10241143 0.0068621868 0.27589571
0.10068586 0.0090168091 0.26564848
0.096481495 0.013434399 0.24450147
0.10040109 0.015458933 0.23602559
0.10324457 0.01932147 0.21889125
0.11672318 0.017049018 0.23212174
0.11837474 0.019238794 0.22241616
0.12028985 0.020652512 0.21632648
0.10860921 0.026797507 0.18569764
0.10666522 0.02878554 0.17616992
-0.1163933 0.010622537 0.21502699
-0.1523664 -0.0074957423 0.29143903
-0.13420159 -0.0046911496 0.28224215
-0.13265988 -0.0079798028 0.29779837
-0.13294472 -0.0083720684 0.29955569
-0.12381473 -0.010922622 0.31327787
-0.11869484 -0.011494018 0.3169947
-0.1144861 -0.014076275 0.32983533
-0.10862059 -0.011860232 0.32079571
-0.10650499 -0.011741647 0.32068834
-0.082032673 -0.0045506288 0.29249108
-0.081422828 -0.0064738705 0.30152735
-0.0035560539 -0.069149762 0.60812378
0.02099197 -0.057917148 0.56122112
0.024964061 -0.062882312 0.58505005
0.02618371 -0.062959164 0.58566099
0.035201762 -0.059279356 0.57049942
0.05664064 -0.06634409 0.60770416
0.060669094 -0.045093384 0.51010823
0.0622162 -0.046139237 0.51527572
0.099313341 -0.035295725 0.47279683
0.10138927 -0.033435605 0.46461433
0.096498139 0.0014774153 0.30186781
0.10126404 0.00913087 0.26741168
0.10122983 0.0094355484 0.26599309
0.099154688 0.014163997 0.24365641
0.10523795 0.012597772 0.25218257
0.10700744 0.019854054 0.21893929
0.11307208 0.017613383 0.23058546
0.11804824 0.019238381 0.22409824
0.12173747 0.019769445 0.22240925
0.12168916 0.020081539 0.22095332
0.11673002 0.023518084 0.20399831
0.11056364 0.026118265 0.19066547
0.10672967 0.029131504 0.17590639
-0.11667441 0.011060227 0.21483175
-0.13425642 -0.0032770322 0.27818102
-0.13712013 -0.0068282215 0.29418549
-0.13732138 -0.0076653729 0.29805759
-0.134259 -0.0083960686 0.30211726
-0.13204314 -0.0084718419 0.30293664
-0.121009 -0.0095523847 0.31030676
-0.11816821 -0.0087395264 0.30710238
-0.11988679 -0.012178171 0.32282001
-0.089470431 -0.0050407657 0.29583296
-0.076673634 -0.0016197609 0.28252286
0.0091580208 -0.063692614 0.59079987
0.016365357 -0.058892936 0.56986994
0.10140833 -0.032675352 0.4651337
0.10445814 -0.032859065 0.4666326
0.097919129 0.0048224712 0.28905991
0.10033743 0.0047481949 0.28991571
0.1018747 0.0048600221 0.28971499
0.10019559 0.01124492 0.25950694
0.097849824 0.014007589 0.2460959
0.10290575 0.020667216 0.21601659
0.11729546 0.018248713 0.23034783
0.1175722 0.019606248 0.22405803
0.12138208 0.020676803 0.21985194
0.12281285 0.021048578 0.21841346
0.10580255 0.028975502 0.17777544
-0.12335483 -0.0089206584 0.30966905
-0.12319715 -0.0091418931 0.31074646
-0.121273 -0.0087986225 0.30953255
-0.10342977 -0.0095020868 0.31661907
-0.098049395 -0.0071082134 0.30645365
-0.08427918 -0.0027240277 0.28866372
0.01511378 -0.056601498 0.56397593
0.016331956 -0.058513902 0.57326078
0.037461128 -0.057219036 0.57160813
0.038733806 -0.057627581 0.57380509
0.057693787 -0.043860685 0.51281857
0.10034744 0.0062271445 0.285375
0.099498689 0.01306566 0.25291356
0.09853974 0.015247201 0.24241281
0.099291496 0.016020169 0.23892282
0.10140403 0.016550055 0.2368671
0.10479527 0.021083213 0.21618371
0.11539032 0.018487003 0.23067556
0.11274026 0.026134739 0.19401425
0.10949089 0.02748343 0.18696114
0.10644244 0.02925281 0.17796576
-0.11652079 0.012320696 0.21274182
-0.11567671 0.011620326 0.21625896
-0.16417785 -0.0072483611 0.29589865
-0.13687296 -0.0032960225 0.28285366
-0.13626479 -0.003954187 0.2861197
-0.14015731 -0.0074988217 0.30218804
-0.13937157 -0.0079260264 0.30439031
-0.13546246 -0.0077894614 0.30456913
-0.1339425 -0.0079132952 0.3054817
-0.13349077 -0.0079799518 0.30589524
-0.13023293 -0.0075960732 0.30475676
-0.11935313 -0.011018634 0.32337704
-0.11524446 -0.010204603 0.32036883
-0.11716425 -0.012952638 0.33305857
-0.096927397 -0.0062366044 0.305343
-0.094657674 -0.0056134393 0.3028546
-0.091167562 -0.004602816 0.29877821
-0.077952363 0.00035458303 0.2779547
-0.07621254 -0.00063291122 0.28303048
0.0041567865 -0.061655927 0.59091789
0.018488713 -0.054188464 0.55836827
0.036456138 -0.057298236 0.57700115
0.039068997 -0.058308735 0.58237141
0.058833431 -0.040954124 0.50385165
0.059818063 -0.040847942 0.50355452
0.097222775 0.0016879601 0.30876216
0.097941563 0.0060992218 0.2878904
0.10136355 0.017155753 0.23592043
0.10577387 0.021203682 0.21756332
0.11766687 0.020431457 0.22376665
0.1190763 0.02039393 0.22424467
0.11907582 0.020545056 0.22352456
0.12136523 0.020503856 0.22420621
0.12132321 0.022616776 0.21412738
0.11720054 0.024929723 0.20222865
0.10433976 0.029852858 0.17603682
0.10648212 0.029903283 0.17625098
-0.11496633 0.012264471 0.2152817
-0.16165732 -0.0049652494 0.28823903
-0.14278799 -0.0046819979 0.29090035
-0.13809364 -0.0030344708 0.28397277
-0.13367578 -0.0014856996 0.27746174
-0.13967165 -0.0041156006 0.28883874
-0.13961717 -0.0050166352 0.29318672
-0.14087614 -0.0079929018 0.30724064
-0.13538712 -0.0074464921 0.30578169
-0.12928067 -0.0065971273 0.30299637
-0.11409469 -0.011735657 0.33096287
-0.10516492 -0.0092942724 0.3211188
-0.1028402 -0.0083367284 0.31700662
-0.088421032 -0.0031104467 0.29493117
-0.084502868 -0.0017885806 0.28940544
-0.083317727 -0.0017572645 0.28950733
-0.076115869 0.0013397415 0.27613974
-0.071913771 0.0029935536 0.26907703
0.0040730224 -0.060967702 0.59308141
0.028130272 -0.05668522 0.57760364
0.057548124 -0.044306394 0.52430624
0.057768799 -0.042392269 0.51514202
0.10043287 0.012900129 0.25815722
0.099291667 0.015427642 0.24575129
0.099685334 0.015927698 0.24342835
0.10037404 0.017354615 0.23670894
0.10100015 0.017279018 0.23720549
0.10154919 0.017239422 0.23751357
0.11238935 0.020007389 0.22650523
0.12138239 0.022931578 0.2143507
0.120836 0.023364708 0.21215001
-0.1646042 -0.0067041507 0.29879388
-0.14191382 -0.0070946394 0.30555654
-0.13633068 -0.006252761 0.30266201
-0.12741572 -0.0049394253 0.29819137
-0.12750135 -0.0065747784 0.30612019
-0.097878352 -0.0056377482 0.30791727
-0.088148646 -0.0024021075 0.29427969
-0.001134653 -0.062058169 0.60282731
0.0015952038 -0.059627134 0.59159839
0.0077004987 -0.059797432 0.59373522
0.017300522 -0.053846758 0.56687671
0.060450267 -0.040535565 0.51144278
0.063082598 -0.041583501 0.51709938
0.09427128 -0.03112907 0.47298372
0.098794214 0.0078661703 0.28446022
0.099412955 0.014574367 0.25199482
0.1020423 0.017809773 0.23683666
0.10286006 0.021545753 0.21885686
