# .PCD v0.7 - Point Cloud Data file format
VERSION 0.7
FIELDS x y z
SIZE 4 4 4
TYPE F F F
COUNT 1 1 1
WIDTH 1361
HEIGHT 1
VIEWPOINT 0 0 0 1 0 0 0
POINTS 1361
DATA ascii
0.13912676 -0.023585988 0.6632365
0.14126793 -0.022996867 0.64669412
0.15156557 -0.02410078 0.65593666
0.29801962 -0.051991321 1.0623633
0.29737231 -0.051265936 1.0469866
0.24851501 -0.03587402 0.77409339
0.2409258 -0.032429859 0.7079466
0.24538854 -0.033067077 0.71553487
0.26039329 -0.035385262 0.74501079
0.27829957 -0.03667115 0.74679059
0.27723607 -0.036138058 0.73638272
0.26981583 -0.033540562 0.68907678
0.26464695 -0.032469086 0.6727674
0.29517484 -0.036776338 0.7235077
0.29808539 -0.036624715 0.71566272
0.29359534 -0.035434935 0.69565332
0.27198353 -0.031058514 0.62979758
0.27359861 -0.031030398 0.62670815
-0.031670365 -0.0029221789 0.46655124
-0.12688956 -0.00798833 0.73799467
-0.068122901 -0.0098300269 0.68748945
-0.066736415 -0.0098891901 0.68666941
-0.064747445 -0.0099315308 0.68448836
0.057885159 -0.0087284222 0.46023807
0.11306606 -0.019809769 0.6330862
0.14159948 -0.021983856 0.63871074
0.29457808 -0.04966981 1.0464172
0.29042774 -0.047604747 1.0044092
0.25167054 -0.035403311 0.77893895
0.24456006 -0.032328829 0.71788406
0.2585552 -0.033259876 0.71745545
0.26940325 -0.034095909 0.71981543
0.33481258 -0.042717289 0.81838411
0.29546827 -0.035247646 0.70530337
0.30139104 -0.035962824 0.71268642
0.28334871 -0.032740857 0.66562188
0.2739383 -0.030951796 0.63851601
0.27302042 -0.030675428 0.63347393
0.27641538 -0.031125003 0.63863778
0.27677953 -0.030948089 0.63389015
-0.031147951 -0.0024997997 0.46589872
-0.03367053 -0.0024886962 0.46986884
0.055724096 -0.0081445947 0.45889342
0.057815783 -0.0084088445 0.46188754
0.13904339 -0.023299124 0.69222313
0.13833061 -0.021935653 0.6598202
0.13938573 -0.021632059 0.65056288
0.1518404 -0.022766288 0.65756679
0.29133075 -0.046727449 1.0134509
0.26747447 -0.033126529 0.71839166
0.33395305 -0.042302594 0.83271301
0.2916961 -0.032865454 0.67121828
-0.036076523 -0.0018949589 0.47013479
-0.033568878 -0.002052671 0.46975949
-0.038906351 -0.0019824591 0.47741833
-0.036448911 -0.0021425406 0.47719333
-0.13329619 -0.0061507025 0.75263804
-0.076249674 -0.0077216704 0.69199723
0.058061227 -0.0077599068 0.45463166
0.090463571 -0.01513118 0.58761317
0.13762693 -0.019967951 0.62890369
0.14051953 -0.019759778 0.6183905
0.29382953 -0.046672225 1.0417752
0.24611959 -0.030518018 0.70899576
0.26481384 -0.032206789 0.71946049
0.26520941 -0.032188509 0.71828765
0.26661342 -0.032268066 0.71785003
0.26809648 -0.032185171 0.71307623
0.2689501 -0.032254402 0.71334988
-0.03432034 -0.0015199631 0.46861732
-0.13638069 -0.0044781175 0.74050993
-0.13241322 -0.0049726316 0.74649572
-0.058783595 -0.0072981929 0.67147166
-0.05634091 -0.0074261604 0.67036456
0.06021725 -0.0074427677 0.45205972
-0.0020794191 -0.01136235 0.67543739
0.11540621 -0.018082881 0.63747877
0.13786411 -0.018474629 0.60597152
0.2390393 -0.028532796 0.68927729
0.24550357 -0.029615799 0.70656103
0.25591692 -0.030762192 0.71815544
0.25682107 -0.030745927 0.7160154
0.26026544 -0.03093349 0.71464717
0.26798439 -0.03138699 0.71247715
0.30359071 -0.033895981 0.71379727
-0.033293895 -0.0011584662 0.46873531
-0.13583206 -0.0034929386 0.73960423
-0.13455252 -0.0035761935 0.73944169
-0.058333892 -0.0063177738 0.66624272
0.055826057 -0.0070080957 0.45882574
0.058779143 -0.0070419516 0.45391852
0.060075045 -0.0071758414 0.45517239
0.059979666 -0.0072259437 0.45679617
0.087891787 -0.013740179 0.58771187
0.13820522 -0.018057538 0.61116683
0.13895899 -0.018162645 0.6126762
0.1493209 -0.019912221 0.64213455
0.29238185 -0.043986071 1.0465254
0.24661462 -0.03120512 0.77176613
0.24074601 -0.02952872 0.73546058
0.25028649 -0.028595967 0.68977588
0.25990635 -0.029592926 0.69916749
0.27638084 -0.029918388 0.67570126
0.32174733 -0.035922956 0.75729632
0.31945297 -0.034115825 0.71013331
-0.036573716 -0.00077950826 0.47743049
-0.13543743 -0.0025097609 0.73898053
0.089154832 -0.013496391 0.59610134
0.088130131 -0.014037349 0.61463523
0.23529285 -0.026862087 0.69121104
0.23525931 -0.026766594 0.68839473
0.24282005 -0.027153688 0.68410593
0.24330863 -0.026202671 0.65430057
0.232531 -0.023328707 0.59016019
0.31926969 -0.033238679 0.70642024
-0.034547035 -0.00020363442 0.46897322
-0.13694195 -0.0014356324 0.73965156
-0.1327565 -0.0016949974 0.73852199
0.088376395 -0.013092392 0.60494441
0.14149721 -0.017272919 0.6191355
0.23460047 -0.027182432 0.72685277
0.22358426 -0.024434978 0.66358328
0.22859226 -0.024959989 0.66911978
0.25737569 -0.027461099 0.68437684
0.27189618 -0.029345248 0.71203882
0.27325946 -0.029427825 0.71161032
0.22914532 -0.022233246 0.5803979
0.25818241 -0.026550079 0.65332961
0.26499736 -0.027558025 0.67028058
0.26982346 -0.028192298 0.6797322
0.27718681 -0.029213334 0.69586575
0.28664908 -0.030548234 0.71732748
-0.036762845 0.00015708966 0.47697619
-0.17449726 0.002156385 0.74163538
-0.061682943 -0.0037859885 0.67183465
-0.059820261 -0.0038605372 0.66987902
0.060449108 -0.0060597607 0.45425963
0.07409174 -0.012680518 0.64733219
0.08857891 -0.013118983 0.62728488
0.09626931 -0.012408586 0.5844425
0.097586341 -0.013716806 0.62592393
0.10792863 -0.013774537 0.60289693
0.10951556 -0.013677024 0.5957315
0.13732874 -0.016260538 0.61671191
0.14483024 -0.016807403 0.61725032
0.23004691 -0.024987243 0.69054949
0.22703168 -0.024199139 0.67093205
0.24344778 -0.026475128 0.7089566
0.24371268 -0.026362332 0.70446694
0.24783729 -0.026761064 0.70811057
0.22352788 -0.021861767 0.59959632
0.23234797 -0.023134751 0.62173992
0.23564661 -0.023391366 0.62252784
0.27129778 -0.02847866 0.71004635
-0.035919797 0.00076028483 0.46935651
-0.033198733 0.00058446528 0.46870089
-0.032411277 0.00053676352 0.46839306
-0.037749048 0.00068662519 0.4767966
-0.17162317 0.0030868037 0.73711854
0.054627761 -0.0055049728 0.46265846
0.060294066 -0.0057300772 0.45614678
0.088136569 -0.01280409 0.64191324
0.097215652 -0.011785386 0.58114767
0.10894972 -0.012985241 0.59443551
0.11260075 -0.013649638 0.60919052
0.2282342 -0.023691926 0.67512035
0.24812455 -0.026251795 0.71683723
0.25575191 -0.027364517 0.73761827
0.24991681 -0.026326543 0.71490884
0.24782595 -0.025633927 0.69506919
0.22302754 -0.021302113 0.60144997
0.26929528 -0.027900619 0.72198457
0.28845567 -0.028984027 0.71172482
0.2829175 -0.027991183 0.689888
-0.037710801 0.0011391952 0.47677025
-0.035679538 0.0010044856 0.47634673
-0.16780879 0.0039692442 0.73109639
-0.057533696 -0.0023556782 0.66935587
0.058492225 -0.0052686501 0.45778203
0.076074608 -0.010814792 0.62573647
0.076719187 -0.011046845 0.63301998
0.092738949 -0.011480815 0.60505348
0.13657197 -0.015181271 0.62699658
0.22261068 -0.02265472 0.67829764
0.23099624 -0.023359776 0.68238169
0.25005209 -0.024094176 0.65766263
0.22847612 -0.020552667 0.57946587
0.29441088 -0.029094376 0.72905874
-0.038568661 0.0015568892 0.48095319
-0.048946504 -0.0019475315 0.66085601
0.053606886 -0.0046969964 0.46448773
0.057489458 -0.004829579 0.45825821
0.077407412 -0.010748786 0.64795148
0.19685873 -0.019731024 0.66375059
0.22109535 -0.022022374 0.68679237
0.22075188 -0.021683086 0.67348677
0.2453832 -0.024371482 0.71212101
-0.034192614 0.0019708166 0.46862757
-0.038126443 0.0020660753 0.47736049
-0.16747238 0.0056742197 0.74257797
-0.12894316 0.0029685134 0.73855567
-0.1270961 0.002813176 0.7395404
-0.057550833 -0.00061334629 0.66528696
0.058381177 -0.00457387 0.46097663
0.058568534 -0.0046046157 0.46176776
0.076781519 -0.0093868971 0.62092698
0.081845477 -0.0097827939 0.62225246
0.092099845 -0.0098144114 0.58952934
0.098023638 -0.010265995 0.59054589
0.1079158 -0.011400619 0.60973895
0.19414286 -0.018595438 0.65313029
0.21925274 -0.020783992 0.67005956
0.24557404 -0.023382651 0.7018072
0.23319589 -0.020620249 0.61606091
0.24015963 -0.021226656 0.62073243
0.23068959 -0.01954744 0.57509184
0.23400052 -0.019711472 0.57159996
-0.037591562 0.0024367839 0.47970748
-0.12902589 0.0040010186 0.73659652
-0.12682843 0.0037903399 0.73913777
-0.055957589 2.8815881e-05 0.66834033
0.053559791 -0.0039400747 0.46612036
0.05578585 -0.004024473 0.46219766
0.099181354 -0.0098086549 0.59407717
0.099894688 -0.0098470896 0.59339333
0.15960506 -0.016704749 0.71942222
0.16004531 -0.016642833 0.71469092
0.1602748 -0.016524503 0.70789069
0.2233222 -0.020135846 0.658252
0.2482222 -0.023263171 0.72427911
0.23158087 -0.01907501 0.5745371
-0.054989673 0.0043134647 0.47192401
-0.053522937 0.0042122696 0.47156915
-0.16635627 0.0076093175 0.74293679
0.052011941 -0.0034648266 0.46804088
0.05770915 -0.0037469848 0.46049416
0.10762642 -0.0103011 0.62140632
0.10831659 -0.010367351 0.62227601
0.16004363 -0.016161362 0.7335245
0.1968123 -0.01720514 0.64157999
0.28833303 -0.031459041 1.0610474
0.21764876 -0.019118637 0.66300952
0.22318467 -0.019424811 0.65745312
0.22960714 -0.01845862 0.57750994
0.23318882 -0.018692829 0.5759241
0.23728184 -0.018991653 0.5758484
0.23594269 -0.018715365 0.56594282
0.24004175 -0.019179836 0.57505703
0.30752605 -0.026217418 0.69119406
0.29794049 -0.025102586 0.66828769
-0.050328325 0.0045908839 0.46149796
-0.054673295 0.0047599021 0.47091275
-0.033391811 0.003230816 0.4683722
-0.037537515 0.0034032713 0.47666204
-0.036776043 0.0033147326 0.47867557
-0.056815192 0.001776577 0.66613996
-0.055559684 0.0016592613 0.66767174
-0.050604515 0.0013697078 0.66295195
0.053249683 -0.003120194 0.46585068
0.054948114 -0.0032079187 0.46351749
0.073062867 -0.0075882147 0.65268892
0.088428825 -0.0076739332 0.58756876
0.18053007 -0.015957087 0.68009204
0.20096309 -0.01689557 0.64474005
0.22071049 -0.01848563 0.65302318
0.23727943 -0.020394571 0.69569576
0.24754371 -0.021608539 0.72408336
0.24357982 -0.021002343 0.70458072
0.2424483 -0.020770559 0.69536382
0.23274289 -0.018775424 0.61586702
0.22824156 -0.017785376 0.57497483
0.23683833 -0.018288042 0.56680316
0.31593385 -0.026449934 0.71141726
-0.044947311 0.0046917698 0.45669946
-0.046957187 0.004791155 0.46020406
-0.037690539 0.0038666606 0.47688562
-0.16601226 0.0095857531 0.74457729
-0.12865695 0.0069641313 0.7340135
0.056724235 -0.0029902596 0.46644452
-0.0068969359 -0.0013202445 0.68122023
0.17599683 -0.015310571 0.71081311
0.18776259 -0.016430952 0.7282328
0.22044997 -0.017769994 0.65175354
0.23512228 -0.019406006 0.69029218
0.23940265 -0.019827265 0.69759256
0.22885028 -0.018308343 0.64577132
0.23276077 -0.018171567 0.61570972
0.25063041 -0.019908888 0.64468575
0.23130536 -0.017500937 0.57609838
0.23298402 -0.017630212 0.57643121
0.31835541 -0.025932744 0.71501625
-0.054027762 0.0057030264 0.4637785
-0.13218395 0.0082064634 0.73410261
-0.056020416 0.0033522544 0.66675574
0.055723384 -0.002457252 0.4613755
0.10997526 -0.0088085262 0.64839011
0.17676124 -0.014626618 0.71614832
0.19396284 -0.015013334 0.64331418
0.20108579 -0.015600212 0.64780772
0.21169108 -0.016551394 0.66078377
0.213653 -0.016689874 0.66014487
0.21851723 -0.016951332 0.65189409
0.21886814 -0.016961856 0.65062505
0.22223137 -0.016870027 0.62278557
0.23096162 -0.016932877 0.57498842
0.23153785 -0.016977893 0.57514954
0.23297915 -0.017081883 0.57485956
0.23291081 -0.017024174 0.57058954
0.23822562 -0.017429164 0.57126886
-0.050996277 0.0059227142 0.46291733
-0.05297466 0.005986901 0.47100356
-0.051614713 0.0058943238 0.47009397
-0.049091086 0.0057217032 0.4684839
-0.035231367 0.0046346467 0.47298393
-0.16534054 0.01157765 0.74363536
-0.16671555 0.011613889 0.75005269
-0.13027868 0.0090586795 0.7328614
-0.1289425 0.0089614615 0.73256224
-0.0064466763 0.00031484562 0.68014359
0.10888571 -0.0084748724 0.69302237
0.14969553 -0.011457945 0.68538553
0.15074259 -0.01135193 0.66767484
0.17196447 -0.013628491 0.73328143
0.1721876 -0.012739475 0.64639699
0.193636 -0.014332221 0.64477497
0.22235681 -0.016549606 0.65071023
0.22497989 -0.016297413 0.60764009
0.23093644 -0.016693233 0.60272902
0.23776557 -0.017273305 0.60920781
0.23851021 -0.016926279 0.57056046
0.31023166 -0.023589106 0.69337124
0.29990971 -0.022560835 0.66903919
0.32473904 -0.024864398 0.71126246
-0.16663034 0.012635343 0.74999821
-0.1286559 0.0099217789 0.73213071
-0.056112647 0.0050193593 0.66502047
0.12187825 -0.0087627564 0.7058506
0.12880003 -0.0092561273 0.70244956
0.14972222 -0.010683894 0.68471634
0.21826123 -0.015585864 0.65297008
0.23303941 -0.016925119 0.67920274
0.22320254 -0.015725542 0.62563688
0.24865597 -0.018302597 0.70250028
0.22691001 -0.015854433 0.60795748
0.23194331 -0.01628932 0.61439991
0.23054044 -0.016043315 0.59798074
0.2312361 -0.016099097 0.59836841
0.23287174 -0.016207386 0.59659123
0.22692695 -0.015489069 0.56499654
0.23280558 -0.015964001 0.56865484
0.23675898 -0.016261084 0.56850606
0.23773201 -0.016333979 0.56844217
0.23871537 -0.016397314 0.56717038
0.30799821 -0.022821955 0.7072503
0.31428325 -0.023334682 0.71174401
0.33316323 -0.024881164 0.72598976
-0.035704829 0.0055420417 0.47662205
-0.16439579 0.013558364 0.74020904
0.12107007 -0.0078651812 0.70358044
0.13567878 -0.0089509925 0.70012879
0.14570925 -0.0096954806 0.69758981
0.1469087 -0.0097374655 0.69020844
0.14854309 -0.0097832102 0.67841929
0.20158096 -0.014010239 0.7087459
0.20322125 -0.01390221 0.67374146
0.21923859 -0.01491727 0.64354473
0.22686306 -0.015534938 0.64940816
0.22463949 -0.015253874 0.63250726
0.22899954 -0.015568832 0.63010395
0.24730863 -0.017311187 0.68318528
0.23156728 -0.015650332 0.61303765
0.23252809 -0.015595588 0.59381747
0.22914365 -0.015186505 0.57091165
0.23157053 -0.015359498 0.5692296
0.23225845 -0.015406067 0.56837785
0.23303246 -0.015460783 0.56777126
0.23819499 -0.015863806 0.56945473
0.29244098 -0.020841597 0.69896603
0.29532132 -0.021083886 0.70253408
0.29653096 -0.021160392 0.7002331
0.30534574 -0.021855902 0.70420468
0.31030482 -0.022221128 0.70252395
0.31873003 -0.022954393 0.7166484
0.33102041 -0.023938429 0.72434539
-0.052185688 0.00728274 0.47080913
-0.16378078 0.014495309 0.74540764
-0.12528099 0.011596454 0.73704094
0.13829157 -0.008253919 0.68082315
0.14417987 -0.0089405179 0.73071581
0.16820017 -0.010430889 0.65855414
0.2135987 -0.013896531 0.65866619
0.21480227 -0.013984608 0.65786445
0.21866807 -0.01420012 0.64113444
0.22626171 -0.014807661 0.64701951
0.22587965 -0.014697624 0.62998641
0.22648175 -0.014743067 0.62988484
0.22768109 -0.014731171 0.60811037
0.2259724 -0.01450199 0.58734125
0.23035976 -0.01485219 0.59056664
0.23148686 -0.014946117 0.59222883
0.23277588 -0.014936883 0.56958419
0.23750091 -0.01527026 0.5638448
0.30112976 -0.020785777 0.7024827
0.30399039 -0.021004122 0.70249408
0.3269738 -0.022827376 0.71701008
-0.062222987 0.0084868846 0.47694317
-0.061222188 0.0084034959 0.4792279
-0.048125699 0.0074282996 0.4687542
-0.034038588 0.006347381 0.46864843
0.067103408 -0.0012990267 0.42789975
0.057447031 -0.00066319463 0.46471798
0.055847507 -0.00056297373 0.47259766
0.13549882 -0.0078684855 0.88926214
0.14481781 -0.0079499176 0.66771346
0.17177381 -0.010020786 0.66836727
0.17381394 -0.010172551 0.66669661
0.19268619 -0.011613994 0.66424173
0.21490349 -0.013301338 0.65796912
0.21624216 -0.013364938 0.64428538
0.2266985 -0.014178961 0.64829803
0.22680718 -0.014137087 0.63073856
0.22796713 -0.014231129 0.63249946
0.22531024 -0.013967525 0.61163664
0.22810493 -0.014111563 0.58700788
0.23335138 -0.014456965 0.56697893
0.2968635 -0.019719012 0.70235068
0.29886299 -0.019871389 0.70198148
0.30263144 -0.020161953 0.70244241
0.31664702 -0.021236774 0.70212215
-0.063607268 0.0090575395 0.4805921
-0.036103498 0.0069387848 0.47646862
0.13578819 -0.006501738 0.6561507
0.13780697 -0.0066520232 0.65041494
0.13796252 -0.0066523524 0.63837236
0.14795916 -0.0074516805 0.66709244
0.14906661 -0.0075416071 0.67163646
0.16065276 -0.008458198 0.69474435
0.1626405 -0.0085659139 0.6475727
0.16794546 -0.0089829173 0.65537149
0.19188575 -0.010901587 0.72870582
0.20713651 -0.012006662 0.65433615
0.21646126 -0.012730195 0.65831524
0.22077906 -0.013051482 0.64597708
0.22573096 -0.013390683 0.6016019
0.22501345 -0.01332153 0.58736396
0.22705169 -0.01347534 0.58375025
0.2962189 -0.01892841 0.70231378
0.30286542 -0.019441858 0.70278245
0.30412376 -0.019538645 0.70238549
0.30543676 -0.019639717 0.70212728
0.30774167 -0.019816387 0.70090401
0.3098177 -0.019978086 0.70241064
-0.052840691 0.0086880615 0.4709518
-0.032709014 0.0071233758 0.46840051
-0.12483024 0.014518422 0.73426723
0.14127566 -0.0059727728 0.90765697
0.14377546 -0.0061970782 0.87487686
0.14830032 -0.0067467471 0.66018069
0.16281678 -0.0078719063 0.66169232
0.20448937 -0.011106486 0.66114086
0.21505888 -0.011929708 0.65798575
0.22908227 -0.013008145 0.66862106
0.21884187 -0.012268082 0.60952812
0.22894958 -0.013041946 0.62095642
0.23113114 -0.013208444 0.62399548
0.23003636 -0.01312847 0.61860096
0.22410086 -0.012700939 0.58280855
0.2346254 -0.013520789 0.57949889
0.23201814 -0.01332741 0.56977099
0.29382944 -0.018002542 0.70152539
0.2933273 -0.017966347 0.69851631
0.29821068 -0.018342391 0.70170468
0.30376109 -0.01877192 0.70299745
0.31149551 -0.01937235 0.70279926
-0.032498781 0.007547183 0.46886474
-0.035254739 0.0077806315 0.47539812
-0.1621522 0.018437248 0.74303091
0.13083756 -0.0045561362 0.69675875
0.1402435 -0.0046847924 0.91154087
0.14156058 -0.0047842357 0.91271847
0.14888775 -0.0053760041 0.90560901
0.15867892 -0.0067240088 0.69843554
0.16384478 -0.0072621498 0.65051949
0.16461737 -0.0073214523 0.65089685
0.16794451 -0.0075199148 0.67257428
0.17614371 -0.0082351668 0.64580756
0.22509485 -0.012127317 0.62015074
0.22995393 -0.01249575 0.62394941
0.23924825 -0.013286329 0.60078651
0.23524296 -0.013021524 0.58384264
0.30093685 -0.017812358 0.70287365
0.30744937 -0.018319968 0.70307493
0.30885839 -0.018430047 0.70304501
0.31030118 -0.01854242 0.70309788
-0.1281084 0.016738234 0.73400617
-0.12630586 0.016601672 0.73504186
-0.12442631 0.016458428 0.73594171
-0.12451386 0.016476801 0.73835981
-0.048584353 0.010158367 0.66177982
0.10987606 -0.002479638 0.61826736
0.12546672 -0.0034409082 0.6738444
0.15098593 -0.0042795232 0.92075682
0.15217954 -0.0043818313 0.91890293
0.15320164 -0.0044856165 0.91390824
0.16313207 -0.0051886365 0.93004495
0.16561797 -0.0053905537 0.92859006
0.15248702 -0.0053662639 0.71515089
0.16463794 -0.0066244621 0.65047532
0.20671611 -0.0098770848 0.66085458
0.21021669 -0.010108447 0.67002589
0.21359611 -0.010434538 0.65709847
0.22476947 -0.011431994 0.6314733
0.22302046 -0.011372137 0.61505121
0.22891882 -0.011800447 0.62237746
0.23502237 -0.012270827 0.62418109
0.22743082 -0.011855667 0.58588004
0.27216181 -0.014849071 0.69541538
0.23329847 -0.012383871 0.57149583
0.23407973 -0.012441759 0.57221371
0.30102968 -0.017078878 0.70288074
-0.032817077 0.0084457193 0.46789542
-0.12880065 0.017756442 0.73102689
-0.051234338 0.011191875 0.66360337
0.028299076 0.0042058099 0.55588758
-0.00013216889 0.007332175 0.68957293
0.10582112 -0.0014041603 0.63238662
0.1132571 -0.0020000942 0.63096792
0.12659578 -0.0026681814 0.68911213
0.14204247 -0.0023601814 0.92011571
0.13350546 -0.0036084494 0.62930733
0.2509146 -0.0098903943 1.0802885
0.1902997 -0.007930764 0.65323257
0.21523495 -0.0096650356 0.68845731
0.22292687 -0.010073035 0.71853882
0.21187416 -0.0095987413 0.65836191
0.22400211 -0.010808128 0.62013924
0.22799323 -0.011329123 0.58894128
0.25349569 -0.012958644 0.64679182
0.23713611 -0.012090396 0.58288556
-0.0339748 0.0089767519 0.46798933
-0.16276878 0.021489894 0.73819613
-0.16195758 0.02143136 0.73887658
-0.15869662 0.021178389 0.73954874
-0.052974612 0.012089965 0.65687168
-0.050408665 0.011947298 0.66402704
-0.002384163 0.008032335 0.65157586
0.167328 -0.0028939322 0.9496038
0.1702649 -0.0037720124 0.87374544
0.15977097 -0.0043507954 0.70780492
0.19591534 -0.0057237693 0.88346857
0.17641146 -0.006112651 0.65582746
0.18094712 -0.0063829804 0.66634792
0.24856701 -0.011737968 0.66731757
0.24589497 -0.011630879 0.65498716
0.23785107 -0.011517077 0.5933488
0.27822062 -0.013975292 0.68080395
0.28701603 -0.014526943 0.69797105
-0.03350376 0.009372374 0.4674077
-0.034786921 0.0095523726 0.47487718
-0.032923896 0.0093937311 0.47390479
-0.16223499 0.02248803 0.74146241
-0.052732527 0.012938653 0.66287774
0.0084739253 0.0075385924 0.6129458
0.0081934063 0.0080276784 0.6578148
0.10339738 -0.00022461131 0.59431034
0.10556778 0.00010063699 0.64222395
0.11207446 -0.00061291177 0.62350488
0.12783182 -0.0010482968 0.70245898
0.14861482 -0.00046870025 0.91753244
0.15436111 -0.0010521134 0.90550256
0.16038246 -0.0019477247 0.86555618
0.16765679 -0.0016231752 0.95253426
0.1737901 -0.0021819454 0.94583076
0.18056796 -0.0035069159 0.87040132
0.1795419 -0.0051504844 0.70450389
0.18080281 -0.0052185361 0.70763236
0.20541222 -0.0073826066 0.68824363
0.24857686 -0.011088086 0.66291296
0.23990704 -0.010948701 0.60984373
0.2312723 -0.010529201 0.58397228
0.23782842 -0.010956996 0.59310722
-0.033794347 0.0098386174 0.46780163
-0.12968895 0.020760771 0.73080033
-0.047150929 0.01325974 0.65892285
-0.011528752 0.011018638 0.70890898
0.0077712047 0.0088634063 0.65947497
0.10469871 0.00031579466 0.59629756
0.10523302 0.00050839543 0.61544424
0.10492749 0.00084349787 0.6406998
0.10560226 0.0010783531 0.66420025
0.14208755 0.0016727506 0.95038968
0.14619374 0.00094923447 0.91832131
0.17143732 -0.0018178198 0.85788471
0.1767731 -0.0022911527 0.85418046
0.17827658 -0.0023654613 0.8579362
0.18877737 -0.0026634943 0.90215909
0.16372277 -0.003722033 0.65274155
0.1906175 -0.003128038 0.87637603
0.16814569 -0.0040013632 0.65886205
0.17232925 -0.0040023858 0.6860562
0.17887738 -0.0047054952 0.67156696
0.18397141 -0.0049500288 0.68489248
0.20479175 -0.0065739015 0.68857855
0.20649557 -0.0067006615 0.68937606
0.21552861 -0.0078100921 0.65804881
0.23778813 -0.010486522 0.58552229
-0.033067163 0.010206218 0.46689165
-0.033011325 0.010210707 0.46752509
-0.16032241 0.024260083 0.73440284
-0.017254937 0.012542891 0.72127914
0.10510492 0.0010101402 0.60357952
0.12166153 0.0042601116 0.92653477
0.15165792 0.0010934848 0.87377101
0.15233958 0.00090646872 0.86446756
0.16614093 0.0009562613 0.9463377
0.15827157 -0.0020637135 0.68891072
0.18144001 -0.0014241714 0.86550903
0.19006182 -0.0020457085 0.87067598
0.1914093 -0.0021309301 0.87232536
0.18064456 -0.0036337769 0.70533568
0.23232764 -0.0093746521 0.59435773
0.23267376 -0.0094776051 0.58907342
0.23915158 -0.0099804187 0.59042805
-0.068871096 0.014412465 0.52082431
-0.16023128 0.025283532 0.73634887
-0.12036707 0.021897176 0.72663587
-0.019675806 0.011343377 0.57780713
-0.050091796 0.015085914 0.65722054
-0.0041299821 0.011461277 0.66339976
-0.014224126 0.013053777 0.711532
0.00061059865 0.011264535 0.67504108
0.10511978 0.0016618713 0.60453326
0.10500552 0.0029606002 0.68465656
0.12177321 0.0054771067 0.92544675
0.17276916 -0.0006624239 0.80070287
0.17834848 -0.00056752801 0.83469093
0.19779329 -0.0010188464 0.90454781
0.17506161 -0.0026689754 0.6875664
0.18054231 -0.0032057043 0.68180847
0.21340333 -0.0060205124 0.67234892
0.21209808 -0.0061025885 0.66068012
0.21361934 -0.0062655704 0.65821028
0.23403513 -0.0089736711 0.59272474
-0.089658953 0.016844166 0.53101379
-0.08570639 0.016704721 0.54115796
-0.08309266 0.01644766 0.53870052
-0.044633303 0.012519464 0.49448779
-0.044437639 0.012513825 0.49506021
-0.0040964629 0.0085617015 0.45803541
-0.16044174 0.026311971 0.73678339
-0.11489081 0.022195591 0.71421337
0.0013753164 0.011402401 0.64068943
-0.00091239408 0.012303299 0.68040556
0.010341847 0.010915129 0.65419745
-0.0021219682 0.012969873 0.71197611
0.10301439 0.0025058438 0.6063621
0.15537016 0.0026799822 0.85305822
0.15923138 -0.00088577106 0.67236012
0.18933 0.00063416164 0.8930946
0.19475065 0.00011011733 0.88851309
0.17709053 -0.0018026538 0.70225328
0.24878532 -0.0006665957 1.0899632
0.21273263 -0.0052452935 0.67226887
0.23224257 -0.0082186423 0.59533876
-0.033484209 0.01156443 0.46749112
-0.033491746 0.011593484 0.46892089
-0.045639839 0.01296227 0.48772585
-0.00033803607 0.0085793454 0.45386714
-0.16027848 0.027299676 0.736597
-0.16028944 0.027423091 0.74275512
-0.10473148 0.021613387 0.67938834
-0.065196805 0.017339572 0.62727392
-0.036648847 0.014915957 0.62294859
0.06396801 0.0029996731 0.43807542
-0.01022903 0.014197339 0.69557446
0.012113161 0.011425315 0.64819068
0.11671102 0.0083087068 0.92207372
0.11807077 0.0079204086 0.90814894
0.16314556 0.0043866546 0.91604692
0.16862449 0.0040480732 0.92158127
0.17247364 0.003740615 0.92196429
0.1753574 0.0032920123 0.91128612
0.17957191 0.0030493194 0.9164356
0.18593761 0.0027971854 0.92996347
0.1870493 0.0026743647 0.9283638
0.16974297 -0.00093902816 0.67547494
0.17314732 -0.0020121753 0.63554072
0.24769939 0.00057572237 1.0725175
0.2120745 -0.0045322101 0.6690926
0.23406163 -0.0077635231 0.59715664
0.23375547 -0.0079104947 0.58850831
0.23384148 -0.0079724398 0.5857479
-0.034821864 0.012214221 0.47211125
-0.043742444 0.013339274 0.4900445
-0.045255862 0.013525955 0.49289307
-0.040486533 0.013082292 0.49054998
-0.0043456098 0.0093919123 0.45771393
-0.055409681 0.01568681 0.55369931
-0.054186702 0.015569231 0.55292344
-0.10399517 0.022439174 0.68003976
-0.088173054 0.020827182 0.66583073
-0.083045684 0.020233594 0.6579603
-0.01450444 0.012602779 0.5666821
0.055143688 0.0046444647 0.46455783
-0.0043436522 0.014094335 0.67350316
0.00765516 0.012632161 0.6517272
0.099289648 0.0047829547 0.63765216
0.1374616 0.0075466791 0.90865171
0.18193837 0.0039971881 0.91376376
0.18269001 0.0030531443 0.87328261
0.18615016 0.0032389229 0.89487588
0.19178368 0.0024838091 0.88150638
0.18008818 -0.00065324287 0.6933772
0.25260234 0.0020775439 1.0925744
0.28000548 -0.00085453189 1.0615293
0.28152847 -0.00097315054 1.0618424
-0.056180928 0.01487921 0.49107346
-0.036170878 0.012764562 0.47169948
-0.042659841 0.013799479 0.4927192
-0.0026050759 0.0096479524 0.45737547
-0.029881513 0.013046322 0.50555426
0.0084961783 0.012557178 0.61892825
0.012700956 0.012935156 0.64956498
0.082210161 0.0075288508 0.66411817
0.11347628 0.0046452112 0.65159672
0.13956548 0.0091436887 0.93256366
0.14387801 0.0090164989 0.94225812
0.14666748 0.0088532884 0.94510871
0.14662276 0.0073829656 0.88289416
0.15809722 0.0066534067 0.89217371
0.1607748 0.0065150582 0.89568454
0.17835578 0.0051818751 0.90080893
0.17156905 0.00072502013 0.68900418
0.17125975 0.00025538399 0.66810226
0.20805968 0.0020547595 0.87255472
0.25237101 0.0035447881 1.0901843
0.21282822 -0.0033173647 0.6624729
-0.045081429 0.013914285 0.47014403
-0.044355836 0.013849024 0.46995345
-0.035170298 0.01313443 0.47188058
-0.021684477 0.011870507 0.46631965
-0.020704009 0.01252119 0.49492761
-0.0574301 0.017165804 0.55705804
-0.033491854 0.014767902 0.54115593
-0.09651535 0.023460463 0.67598754
-0.09054216 0.022872934 0.67244256
0.013023878 0.011948233 0.58213729
0.023431644 0.010406376 0.55571485
0.0073283445 0.013395842 0.62018943
0.0086039612 0.01441749 0.6642496
0.060008522 0.010816909 0.69060957
0.11012669 0.0059616463 0.66376275
0.13761704 0.0031254655 0.64228117
0.24424796 0.0053735855 1.0766009
0.2469092 0.0048487368 1.0647451
0.21419676 -0.0027403233 0.66194004
0.2323266 -0.0061269077 0.58853644
-0.026521666 0.012707307 0.4663299
-0.0052624308 0.010775559 0.46070778
-0.0039572641 0.010654171 0.46026289
-0.058003213 0.018066604 0.56552345
-0.044750419 0.016763816 0.55843627
-0.044632845 0.016820252 0.56084603
-0.098022453 0.024583282 0.68085212
-0.016248377 0.01375982 0.53583974
-0.022133676 0.014604338 0.54865885
-0.019769987 0.015320924 0.5819056
0.012476631 0.012620254 0.58172667
0.011707672 0.012864666 0.58827716
0.0044586831 0.014387569 0.6216228
0.017103935 0.013215847 0.61745346
0.063861489 0.010587473 0.66401881
0.095004261 0.008618244 0.68708444
0.1074084 0.0080698868 0.70485228
0.13360356 0.012734753 0.95414156
0.13505329 0.012709294 0.95762014
0.14706939 0.0097914645 0.88803869
0.15131366 0.0097486749 0.8993842
0.15650606 0.0094176633 0.90313345
0.16378947 0.0087343222 0.90042496
0.20454577 -0.00081781048 0.67694509
0.23237386 -0.0056185224 0.58695805
-0.046324108 0.014963016 0.47168326
-0.045430444 0.014917457 0.47268784
-0.03859378 0.014343346 0.47269979
-0.036914792 0.014202993 0.47272399
-0.086865216 0.02118765 0.56753898
-0.084591433 0.020968361 0.56657791
-0.010557229 0.011688337 0.4625228
-0.055218916 0.018013608 0.55002177
-0.056624129 0.018673191 0.56844193
-0.051461734 0.020127978 0.63268054
-0.016582394 0.015306265 0.56836087
-0.018109152 0.015980504 0.58692974
0.016978547 0.012440261 0.56679529
0.0097234696 0.014409969 0.61305755
0.014344187 0.013886834 0.60846913
0.059870448 0.012532995 0.69253504
0.061760437 0.012758584 0.70561171
0.08628948 0.0080520911 0.61562949
0.090450063 0.0095619224 0.67887557
0.13858971 0.012970653 0.93240201
0.14567901 0.011765681 0.91167933
0.15866399 0.010811696 0.91634214
0.1643806 0.010603528 0.92559755
0.16481152 0.010208107 0.91338015
0.17955698 0.0074285404 0.86097944
0.18379308 0.0076184962 0.87954664
0.18746348 0.0076657766 0.89164591
0.18879449 0.0075893137 0.89284909
0.20430747 -0.00010630665 0.67542964
0.21392766 -0.0012760473 0.66313666
-0.043437563 0.0153288 0.47667757
-0.035763539 0.014511242 0.47126472
-0.032501522 0.014171323 0.4692069
-0.034866847 0.014583746 0.47599933
-0.022866135 0.013274205 0.46654317
-0.0057235137 0.011716289 0.46302408
-0.053569853 0.018473117 0.54978722
-0.05257111 0.018487925 0.55295461
-0.055409446 0.019109521 0.56515557
-0.057387047 0.019462708 0.57110274
-0.026853742 0.017086735 0.57757759
-0.018191375 0.016179085 0.57195216
-0.014153535 0.015611907 0.5647282
0.019949516 0.012532572 0.5583654
0.011290321 0.014246825 0.58976555
0.014721265 0.014509613 0.60741752
0.060685113 0.013970523 0.71420282
0.072382472 0.012367375 0.69454831
0.084141269 0.0093692653 0.63049704
0.087861791 0.0085707493 0.61502564
0.088532992 0.0096391002 0.65096653
0.091306269 0.0092495363 0.64600325
0.094296858 0.0083788587 0.62625748
0.1465771 0.012536214 0.90011358
0.19000717 0.0086128889 0.89195406
0.21169728 -0.00030849321 0.6654759
-0.041804396 0.015608297 0.47536758
-0.040062599 0.015411306 0.47388756
-0.035189789 0.014839303 0.46911773
-0.034007128 0.01473589 0.46902606
-0.038276542 0.015429779 0.47900933
-0.037470013 0.015376751 0.4794738
-0.037227869 0.015371062 0.47992176
-0.036099419 0.015276632 0.47996181
-0.019695109 0.013725887 0.47519547
-0.012336124 0.012794721 0.46596566
-0.011876071 0.012890381 0.47002256
-0.053652212 0.019584948 0.56483316
-0.03140562 0.017866654 0.56995553
-0.053819232 0.022024009 0.63785332
0.0099142045 0.01553879 0.60547417
0.01464665 0.014812224 0.59569323
0.005678778 0.017301587 0.64773208
-0.001217337 0.020346956 0.7218129
0.061182801 0.0138027 0.68424571
0.091228008 0.011599549 0.69470173
0.15253109 0.012961393 0.89241165
0.16310859 0.013055108 0.92226982
0.17747957 0.010608202 0.88532043
0.18026821 0.010108433 0.87739909
0.18580633 0.0098988023 0.88524324
0.23476651 0.011882545 1.0701324
0.24345283 0.011720623 1.0874578
0.21214929 0.00031628209 0.66401577
-0.047886506 0.016549375 0.47433043
-0.032151882 0.014744165 0.46114776
-0.030705249 0.014823237 0.46691445
-0.011637548 0.013155184 0.46573827
-0.013150414 0.013418556 0.46956265
-0.0048101796 0.012457958 0.46246949
-0.049510565 0.019576989 0.55661047
-0.12584031 0.032073002 0.72703624
-0.041479643 0.020006886 0.58836627
-0.038912691 0.019665178 0.58487183
-0.054258276 0.022669965 0.63316238
-0.046198513 0.021848887 0.6293605
0.018517755 0.014200684 0.56878281
0.017415721 0.014864692 0.58501571
0.0027470167 0.018664548 0.65759432
0.064946428 0.014028789 0.67669547
0.084386952 0.010703273 0.62921971
0.090611063 0.010429778 0.63655341
0.093274169 0.01003089 0.6316644
0.093840905 0.010460815 0.64528489
0.16235371 0.013881746 0.90917856
0.1636851 0.013806594 0.9102748
0.16926579 0.012481234 0.88608789
0.17415307 0.012096746 0.88701159
0.1827002 0.011020005 0.877114
0.23715496 0.013324932 1.075069
0.25164497 0.012594861 1.0894822
0.21116243 0.0011652521 0.6656065
-0.041655775 0.016507622 0.47522351
-0.037716426 0.016341137 0.47985014
-0.0055613001 0.012955398 0.46286681
-0.072431035 0.022843575 0.57509893
-0.12699509 0.033310264 0.73146158
-0.04658448 0.021493254 0.59848869
-0.040855672 0.021066604 0.60023201
-0.050607909 0.023051381 0.63125986
-0.049132112 0.022949653 0.63192981
0.0027543076 0.019567098 0.66073704
0.079519503 0.01246803 0.64677101
0.083597034 0.011501445 0.63010442
0.089022927 0.010990628 0.62887329
0.093188345 0.010810828 0.63366228
0.15239038 0.015058508 0.88553685
0.23665211 0.015073864 1.0811223
0.24015032 0.014879428 1.083974
0.21229132 0.0017203487 0.66396695
-0.031533487 0.015786432 0.46732298
-0.030872498 0.015751665 0.4678928
-0.038396012 0.016931634 0.48155153
-0.039656173 0.017166918 0.48480654
-0.033602644 0.016930679 0.49213931
-0.01708293 0.014671456 0.47066906
-0.011152003 0.014159084 0.47063664
-0.12976316 0.035359956 0.75272
0.011293141 0.019445639 0.65614426
0.0067639067 0.021123411 0.68922114
0.078874461 0.012674924 0.63181329
0.093036652 0.011639653 0.63656902
0.1598694 0.017166452 0.92651844
0.17485145 0.014545386 0.89234626
0.18177685 0.014791445 0.91400093
-0.033288565 0.016158519 0.461954
-0.032526523 0.016081225 0.46167642
-0.027565535 0.015672864 0.46219802
-0.035556268 0.016970733 0.47703558
-0.021608688 0.015359684 0.46716183
-0.021946933 0.015789798 0.47697911
-0.017152842 0.015286168 0.4748126
-0.069293991 0.023853427 0.57404405
-0.046754368 0.020661788 0.54368335
-0.047649529 0.02099474 0.54993945
0.0078103342 0.02052745 0.65612507
0.0089221653 0.021901444 0.69213545
0.085358761 0.012081776 0.61376047
0.087013178 0.011853717 0.61168307
0.092859961 0.012496667 0.63983154
0.17376684 0.017002532 0.92179066
0.19704783 0.0147495 0.91599077
0.20511523 0.0044412236 0.68063712
0.20725434 0.0042321854 0.68005431
-0.035216674 0.017318299 0.47510326
-0.040467843 0.018307509 0.48755494
-0.029341334 0.017347625 0.48775351
-0.022983292 0.016469745 0.48016009
-0.015254199 0.015518429 0.47364008
-0.062937707 0.023579521 0.5651539
-0.11678387 0.034845062 0.71909595
-0.054814842 0.02634331 0.64636308
0.015174803 0.01814802 0.59713453
0.028565772 0.015656725 0.5661118
0.00041510299 0.022640701 0.67219889
0.018223675 0.019496391 0.63489276
0.083227843 0.013234286 0.62074482
0.084246643 0.013030919 0.61806172
0.085131243 0.012891247 0.61659533
0.14969438 0.019332856 0.89879394
0.16521755 0.019947788 0.94479311
0.19144462 0.015686413 0.89849395
0.205111 0.0044296221 0.66293508
0.20990951 0.0041037169 0.66508144
0.21531482 0.0037006889 0.66665787
0.2165332 0.0029561382 0.6517185
-0.028357465 0.016615 0.46257308
-0.039974116 0.01875397 0.48772407
-0.017771253 0.016316192 0.47661802
-0.014837196 0.015973305 0.47468618
-0.014248435 0.015993454 0.47628999
-0.056180462 0.022881091 0.54841667
-0.043511707 0.021328988 0.53847045
-0.1208573 0.036121458 0.71827501
-0.12473676 0.037683781 0.74566907
-0.061147343 0.027587537 0.64410257
-0.0044819005 0.024485592 0.68563277
0.0073909769 0.022349726 0.66105169
0.076064616 0.015898047 0.65107846
0.082396463 0.014370204 0.62926173
0.085693263 0.013964215 0.62662607
0.12183171 0.010970238 0.63036084
0.14467752 0.022283453 0.92851382
0.18453185 0.0088660168 0.70606053
0.19333196 0.0091725355 0.73016495
0.25414062 0.019528944 1.0812563
0.20656852 0.0050017647 0.66267776
0.21898837 0.004223506 0.66957814
0.21511258 0.0035026085 0.64583731
0.21337222 0.0031194703 0.63384622
0.24531861 -0.0018265124 0.58564824
-0.030354122 0.017275939 0.46377814
-0.02029795 0.017128045 0.4795863
-0.069189921 0.025822276 0.57403326
-0.1323517 0.038882669 0.73532504
-0.11462308 0.036190052 0.71095854
-0.12512422 0.038878411 0.74887943
-0.059275184 0.028037606 0.64033729
0.019062452 0.020639416 0.62932032
0.0053750351 0.025428517 0.7063483
0.084122643 0.014851701 0.62782937
0.084859073 0.014797041 0.62804645
0.14617173 0.022013905 0.89881736
0.2001162 0.01725585 0.89845818
0.21424107 0.0051239743 0.6645335
0.23924199 -0.0011616567 0.57671809
0.24344106 -0.0012804776 0.58209294
0.23205245 -0.0022465556 0.53984123
-0.031527422 0.017653652 0.46050552
-0.029715534 0.017613525 0.46297976
-0.043174706 0.020214554 0.49212006
-0.052897874 0.023836723 0.54913902
-0.044625044 0.02273846 0.54155451
-0.13523519 0.039972357 0.73202348
-0.061058573 0.028793957 0.63655347
-0.051171932 0.027123915 0.62011164
0.069438793 0.018678421 0.66565478
0.092186175 0.017795097 0.68888479
0.14918719 0.023356579 0.90751994
0.15191123 0.023302441 0.91136652
0.16741575 0.022144526 0.91573071
0.17332472 0.022127127 0.92613977
0.19186139 0.020238258 0.92094803
0.20607252 0.0074850805 0.68370116
0.21367317 0.0069801081 0.68713319
0.21403833 0.0059412345 0.6663624
0.21369384 0.0049360418 0.64499414
0.21398443 0.0040962421 0.62819505
0.23971196 -0.00068446272 0.57643872
0.24437907 -0.00078015414 0.58296907
0.23239668 -0.0016734028 0.54270124
0.23353064 -0.0017996234 0.54216331
-0.047406118 0.020236319 0.4753212
-0.069194585 0.023928681 0.51023108
-0.045324635 0.021003988 0.4942272
-0.040833738 0.020465357 0.4914476
-0.061101079 0.025412345 0.55394351
-0.020000253 0.01857256 0.49057963
-0.11647804 0.038315568 0.71252227
-0.11891373 0.039420828 0.73017246
-0.049036611 0.027459513 0.61583906
0.017986204 0.020513823 0.59604335
0.0071809352 0.026707835 0.69996637
0.15348975 0.024555963 0.9150281
0.15572216 0.024069782 0.90930909
0.17157783 0.021618254 0.88857979
0.18070266 0.021166895 0.89569575
0.20819956 0.013432278 0.79059899
0.20805703 0.0077958023 0.67845631
0.21424383 0.0068178731 0.66994345
0.21503319 0.0066089849 0.66718739
0.21390976 0.0049651209 0.63257521
0.23601095 -0.00085999625 0.55587828
0.23571907 -0.0013786033 0.54506898
-0.037410446 0.021416979 0.50610876
-0.029367464 0.020557279 0.50338644
-0.10390214 0.035819583 0.66815579
-0.042788383 0.026882537 0.60147017
0.0147611 0.023721369 0.63917381
0.025189858 0.021457471 0.61366355
0.035941102 0.022767855 0.65706491
0.046028391 0.022407902 0.66738695
0.063525245 0.022854483 0.7057727
0.084597528 0.018008433 0.64903104
0.087665372 0.016871894 0.63252658
0.088711672 0.018082596 0.65746713
0.094353199 0.018276768 0.6708048
0.096374035 0.017090231 0.65155768
0.15584637 0.025270915 0.90946567
0.15850577 0.024086269 0.89134455
0.15800613 0.022729767 0.86454731
0.16532105 0.021500738 0.85351789
0.1793285 0.021037972 0.86856037
0.20408551 0.014975177 0.79483283
0.21490824 0.007772197 0.67552954
0.21382342 0.0064104488 0.64763474
0.21037489 0.0058593042 0.63121051
0.21489029 0.0055794418 0.63355976
0.23859502 0.00059016177 0.57856959
0.24084826 0.00027504316 0.57638657
0.23802151 -0.00016968008 0.56305909
0.23542835 -0.0010882816 0.54106623
-0.032027308 0.019127836 0.46323258
-0.030162379 0.018944025 0.4629249
-0.039960556 0.022371152 0.50995815
-0.061939932 0.026800841 0.55534893
-0.035399593 0.022800008 0.5254131
-0.035365093 0.02285351 0.52645743
-0.12012624 0.039908044 0.70098275
-0.1170153 0.03943377 0.69737583
-0.096531563 0.036098916 0.66971368
-0.11350254 0.040108062 0.71562606
0.017644219 0.023992645 0.63512915
0.033956818 0.023796696 0.65848672
0.038765628 0.023023799 0.65217656
0.043936364 0.022771263 0.65606713
0.04487779 0.02266247 0.65561616
0.075544581 0.020063473 0.65837008
0.08469411 0.018717885 0.64867109
0.088118576 0.021157464 0.69934684
0.11927857 0.012944366 0.59932733
0.17772387 0.02264232 0.87490952
0.18304582 0.021887502 0.86978233
0.21478955 0.0078128669 0.66257483
0.21623929 0.0061050961 0.63346034
0.23775098 0.001148 0.57756567
0.23991369 0.0010383202 0.57911795
0.24019282 0.00083732826 0.57587081
0.24257138 0.00066795951 0.57667869
-0.03101391 0.019475719 0.46334311
-0.019689979 0.018700419 0.46769837
-0.053953338 0.026328627 0.54866588
-0.049584948 0.025738554 0.54515994
-0.039731748 0.02420795 0.53369284
-0.087122411 0.035138894 0.65245616
-0.055661492 0.031993885 0.64689422
0.018293627 0.023009475 0.60545605
0.0056765378 0.026805254 0.65285844
0.020754183 0.024171323 0.63011259
0.01967212 0.024659632 0.6370787
0.039182007 0.023655603 0.65049475
0.041635055 0.023229698 0.64684129
0.042988658 0.023429913 0.65258133
0.087169833 0.017773423 0.62267274
0.090318933 0.019553157 0.6594463
0.089817271 0.021268519 0.68921405
0.10019985 0.0176681 0.64170742
0.12071394 0.014351417 0.6155178
0.14625558 0.029007349 0.91771662
0.16520663 0.024297137 0.86418128
0.16549651 0.022850059 0.8388558
0.18013686 0.02419951 0.88640279
0.18252602 0.023338232 0.87488663
0.21490353 0.0086846845 0.66568267
0.21372908 0.007723426 0.64666498
0.24062191 0.0014552277 0.57810873
0.24171743 0.0012198231 0.57567137
0.23732783 0.00066093815 0.55866605
0.23674335 0.00024848516 0.55037665
0.23932046 -0.00013139848 0.54774207
-0.046728812 0.021941014 0.47386676
-0.040977195 0.023835218 0.5154826
-0.05352319 0.026926769 0.54920262
-0.053784642 0.027043659 0.55080956
-0.12480054 0.042561624 0.70752251
-0.10381417 0.038923532 0.67754453
-0.056942988 0.032953177 0.64773571
-0.0023198202 0.028318079 0.65302753
0.018709436 0.023438124 0.60171396
0.018076153 0.026453789 0.65270203
0.043685041 0.024697646 0.66236854
0.077922143 0.020630229 0.64565551
0.087566033 0.018685466 0.62717569
0.091379344 0.020072494 0.65702814
0.14719495 0.029518658 0.90687257
0.14870094 0.029689128 0.91215914
0.15382072 0.02924598 0.91250503
0.17009374 0.021485904 0.80413538
0.18768653 0.023016021 0.85794121
0.19566035 0.023371207 0.87649703
0.20152664 0.024985867 0.91347438
0.20301987 0.02496808 0.9154954
0.21191023 0.011777944 0.70202583
0.21462645 0.0095117418 0.66720217
0.21470077 0.0091786692 0.6615774
0.21259314 0.007619374 0.63141638
0.21381268 0.0074912091 0.63110936
0.23608898 0.0023344301 0.57696867
0.23842396 0.0020842419 0.57629794
0.23961753 0.0020000385 0.57670784
0.23732601 0.0010837272 0.55734158
0.23676617 0.00066112302 0.54918462
-0.054012816 0.027557509 0.54885602
-0.055332884 0.027947092 0.55335391
-0.012662935 0.031992063 0.68556672
0.00062345777 0.031025155 0.68958682
0.020617487 0.025695873 0.63099527
0.017232399 0.029898722 0.69598484
0.028721357 0.027826604 0.67883837
0.038394518 0.025504231 0.65476143
0.040490985 0.025202805 0.65291262
0.041314777 0.025135826 0.65304452
0.041751284 0.025472833 0.65933013
0.079607077 0.020340472 0.63111567
0.081896812 0.020588025 0.63871974
0.092154473 0.022288481 0.68265116
0.093011856 0.022215316 0.68273026
0.10677999 0.018004788 0.6333611
0.10848697 0.017453477 0.62675279
0.11057881 0.019396674 0.6623472
0.16599624 0.015208596 0.6765272
0.19629036 0.024686571 0.88061655
0.20561954 0.012208494 0.68657148
0.21276383 0.010090868 0.6620757
0.21324533 0.0093007758 0.64962339
0.22782397 0.008035467 0.6506238
0.2298868 0.0081381667 0.65546668
0.23292519 0.0082073445 0.66122985
0.23643823 0.0078986557 0.66140848
0.23662259 0.0028133276 0.57683909
0.2375358 0.0026306482 0.57517642
0.2408119 0.0022845259 0.57437044
0.23726006 0.00096368283 0.54694515
0.2377331 0.00092274736 0.54697901
-0.051056638 0.027969336 0.55007052
-0.089802593 0.037937742 0.65402383
-0.06211954 0.035715502 0.65897775
-0.057953097 0.035164043 0.65621346
0.019926535 0.02703774 0.63983971
0.077516921 0.026056331 0.70902342
0.090212673 0.020794531 0.64269692
0.09814059 0.020778831 0.65415221
0.10452884 0.019002361 0.63486356
0.11123931 0.018522974 0.63702232
0.12091069 0.016598746 0.62019372
0.14436883 0.031378783 0.89381021
0.14999753 0.031723838 0.90770233
0.18366998 0.026408037 0.87148154
0.21653078 0.0096328417 0.64877963
0.21319412 0.0086647151 0.62819916
0.213892 0.0086138109 0.62840658
0.21769348 0.0084009161 0.63057899
0.23099679 0.0087999171 0.65667766
0.23705873 0.0085083749 0.66091537
0.23952323 0.0028792447 0.57354033
0.2373998 0.0017116092 0.55152494
0.23873232 0.001378326 0.54810464
-0.067017078 0.030669603 0.55991328
-0.061545689 0.030004153 0.55735141
-0.047625482 0.028136052 0.54808801
-0.037088372 0.029969439 0.59200698
0.040528171 0.027019806 0.6574592
0.05635456 0.028680867 0.7062887
0.079509363 0.021886863 0.6330632
0.099924043 0.02121098 0.65184563
0.10032994 0.021666141 0.65956855
0.10397502 0.019555261 0.63170904
0.11228542 0.018437838 0.62614495
0.1130741 0.018167177 0.62303573
0.11681804 0.016820332 0.60730094
0.11955964 0.016708257 0.60948944
0.12025163 0.016807323 0.61203897
0.13204068 0.033904362 0.89714277
0.13298853 0.022291016 0.71637219
0.14572506 0.032436341 0.89381474
0.14751449 0.033070624 0.90633804
0.15893461 0.017809376 0.6834296
0.18644133 0.026806463 0.86412191
0.16810533 0.016321506 0.67329454
0.19497097 0.027492015 0.88714999
0.21091209 0.011329057 0.65660816
0.21241234 0.010848975 0.65123791
0.2130668 0.010601524 0.64829898
0.21393794 0.0092471959 0.62831253
0.21702519 0.0090860389 0.63022876
0.23139961 0.0093742525 0.65543747
0.23415747 0.0094233733 0.66017658
0.24682161 0.0080618896 0.65705216
0.2368117 0.0037901523 0.57565027
0.23849891 0.0036578577 0.57600385
0.23900814 0.0036099527 0.57598573
0.24039486 0.0025910449 0.56200165
0.24015149 0.0016576984 0.54701376
-0.049914349 0.028579323 0.54244447
-0.11837052 0.046345633 0.7168479
0.00066671718 0.031929988 0.66447103
0.020906784 0.031184666 0.68153763
0.026633183 0.030084949 0.67283231
0.082490489 0.021945361 0.62731659
0.10986056 0.020057155 0.6369918
0.11163733 0.019123532 0.6252718
0.11615236 0.017753879 0.6107555
0.12171958 0.017584002 0.61598468
0.14876598 0.033973787 0.90350258
0.15890585 0.020930296 0.71913922
0.18683533 0.029436046 0.88785595
0.16673797 0.018646603 0.69536376
0.18774432 0.028489538 0.87472075
0.16632473 0.01663571 0.66416579
0.19696441 0.028822513 0.89273435
0.2087447 0.011797214 0.65004855
0.2133954 0.011504692 0.65212363
0.23703533 0.0098631904 0.66031802
0.23943986 0.009280079 0.65481532
0.24111569 0.0091936262 0.65585113
0.23649025 0.0047384244 0.58152342
0.23561524 0.0045747817 0.57780379
0.23609039 0.0044328198 0.57630938
0.23930432 0.0041543804 0.57658142
0.23679765 0.0028485409 0.5531801
0.23650846 0.0024646856 0.54692966
0.23837379 0.002297275 0.54699969
0.24026632 0.002132273 0.547144
-0.053980567 0.026355112 0.49518931
-0.028683094 0.022543916 0.47347474
-0.01223785 0.019738054 0.4545019
-0.0073645599 0.018967172 0.44977608
-0.047549736 0.029012438 0.54331559
-0.049149077 0.034012076 0.61508948
0.018764749 0.024684522 0.57016939
-0.0020981911 0.034931827 0.69317889
0.076503284 0.024992172 0.6538502
0.082711138 0.02717426 0.69464004
0.086963519 0.024784423 0.66511154
0.089321628 0.024685673 0.66688287
0.10793395 0.020380296 0.62869477
0.10866714 0.02032423 0.62887073
0.11000999 0.020533469 0.63380653
0.11274138 0.021192433 0.64729935
0.1132062 0.022392161 0.66568524
0.12105475 0.017850924 0.60925704
0.12748647 0.023436584 0.70070732
0.15884709 0.018638331 0.67269957
0.18489304 0.030984448 0.891047
0.18372802 0.024491986 0.79339898
0.20093594 0.014526177 0.66954446
0.20601405 0.013363301 0.65930015
0.2115321 0.012406727 0.65271091
0.21411103 0.012114139 0.65191692
0.21584712 0.011863843 0.6505934
0.2388344 0.0059731198 0.5949474
0.2362639 0.0049710297 0.5765993
-0.051327389 0.02632127 0.49099419
-0.020415137 0.021596512 0.46441031
-0.024770269 0.02263286 0.47348812
-0.063550554 0.031886406 0.55469036
-0.063896358 0.032037757 0.55640465
-0.04777978 0.029576266 0.54257107
0.015240044 0.026067091 0.57646453
-0.0064896462 0.035656225 0.6853227
0.08891464 0.02842552 0.70903671
0.093722865 0.026709817 0.69079232
0.10296396 0.023661541 0.65931129
0.10638872 0.021453217 0.63212687
0.10798422 0.021090543 0.62904531
0.11055665 0.019928364 0.61577046
0.12320316 0.018502694 0.61219251
0.12906182 0.023371283 0.69007796
0.14739411 0.019203249 0.65466005
0.14758812 0.018656852 0.64705926
0.15334755 0.021943603 0.70205456
0.15472457 0.022277417 0.70870101
0.16737853 0.026803777 0.79076076
0.18984503 0.032455582 0.90215051
0.16928005 0.019950496 0.69471335
0.19224481 0.017006153 0.68310237
0.20678386 0.013558067 0.65296382
0.21080478 0.013135174 0.65226328
0.21158622 0.01308752 0.65262449
0.21686152 0.012524308 0.65158445
0.21884865 0.012137573 0.6486817
0.21463373 0.011072303 0.62771267
0.21586978 0.01094528 0.62754035
0.23809861 0.010893078 0.65655094
0.24034379 0.01057988 0.65505171
0.23823956 0.005865613 0.58441287
0.23685493 0.0053590285 0.57527161
0.24047802 0.0047584674 0.57148248
0.24056642 0.0030152001 0.54652184
