# .PCD v0.7 - Point Cloud Data file format
VERSION 0.7
FIELDS x y z
SIZE 4 4 4
TYPE F F F
COUNT 1 1 1
WIDTH 1412
HEIGHT 1
VIEWPOINT 0 0 0 1 0 0 0
POINTS 1412
DATA ascii
0.2959446 -0.18937996 0.53840733
0.31276277 -0.17861196 0.50779396
0.36586139 -0.20260771 0.57601386
0.3474386 -0.17802776 0.50613302
0.35306457 -0.17130952 0.4870331
0.35399824 -0.16636695 0.47298148
0.1248183 -0.22405542 0.64053035
0.11952519 -0.20553656 0.58758861
0.12054437 -0.20513374 0.58643705
0.14280026 -0.22651976 0.64757544
0.14472036 -0.2209975 0.63178843
0.16043732 -0.22032832 0.6298753
0.16231054 -0.22104591 0.63192695
0.16038235 -0.20803325 0.5947262
0.18714419 -0.21695375 0.62022817
0.19440961 -0.21328974 0.60975325
0.20210485 -0.21454115 0.6133309
0.21878406 -0.21810022 0.62350559
0.20828789 -0.20513779 0.58644867
0.21885341 -0.19879512 0.56831616
0.22291845 -0.20026454 0.57251686
0.23309828 -0.2049105 0.58579898
0.23752476 -0.20768617 0.59373391
0.25700733 -0.22001937 0.62899208
0.26905268 -0.19383055 0.55412358
0.25799114 -0.18185896 0.51989907
0.26168191 -0.18133642 0.51840514
0.29923695 -0.2022233 0.57811671
0.30645087 -0.20540217 0.58720434
0.2784279 -0.18214363 0.52071279
0.34241128 -0.17724125 0.50669783
0.35235029 -0.16951814 0.48461899
0.35673124 -0.16816534 0.48075163
-0.053428128 -0.15036762 0.43227431
-0.048163354 -0.14838012 0.42656058
0.11976301 -0.20480075 0.58875751
0.13175559 -0.21406259 0.61538345
0.15785022 -0.22501104 0.64685798
0.15564001 -0.20564952 0.59119767
0.19422641 -0.21333434 0.61328989
0.19570294 -0.21209341 0.60972232
0.19558266 -0.20781152 0.597413
0.20111866 -0.21230766 0.61033851
0.22264585 -0.20000574 0.57497317
0.23432863 -0.20484713 0.58889097
0.25962311 -0.22218549 0.638735
0.2603718 -0.22166058 0.63722605
0.25677386 -0.20670398 0.59422898
0.27049911 -0.20847237 0.59931284
0.25195405 -0.18373871 0.52820891
0.3252857 -0.19741072 0.56751293
0.31567049 -0.17890033 0.51429969
0.36868608 -0.20259653 0.58242106
0.34834969 -0.18278146 0.52545696
0.34457266 -0.17680934 0.50828844
0.3707405 -0.18670487 0.53673589
-0.046642505 -0.14564858 0.42106161
-0.046294834 -0.15344501 0.44360051
0.11472519 -0.20364843 0.58873576
0.14666773 -0.21545033 0.62285441
0.1733551 -0.21552783 0.62307823
0.18784499 -0.21688159 0.62699199
0.19980827 -0.20839366 0.60245401
0.2029763 -0.2103423 0.60808718
0.23340471 -0.21687819 0.62698221
0.26284721 -0.18165745 0.52516109
0.2636407 -0.17990111 0.52008361
0.29123315 -0.19706762 0.56971085
0.32581446 -0.18490487 0.53454924
0.38534886 -0.19178998 0.55445373
0.35815924 -0.17140503 0.49552199
0.34854335 -0.16437282 0.47519216
0.48322666 -0.21474816 0.6208244
-0.047941249 -0.14604473 0.42459342
0.13797174 -0.20912983 0.60799956
0.14827327 -0.21658456 0.62967277
0.19724348 -0.2085952 0.60644525
0.21397971 -0.21634281 0.62896979
0.22437131 -0.21218555 0.61688346
0.22773643 -0.20118119 0.58489072
0.26027608 -0.18601868 0.54080915
0.3087731 -0.21495169 0.62492549
0.31350437 -0.20494713 0.59583926
0.2684741 -0.17339641 0.50411236
0.29882565 -0.18699546 0.54364878
0.30535224 -0.17353527 0.50451624
0.3309001 -0.18673548 0.54289293
0.34953815 -0.17847769 0.51888525
0.36783108 -0.18373746 0.53417683
0.48244405 -0.21921475 0.63731933
0.48553079 -0.21694209 0.63071209
0.4715611 -0.20838602 0.60583711
-0.051714361 -0.14562209 0.42577147
-0.046949171 -0.14495808 0.42382994
-0.044645052 -0.14631321 0.42779213
0.12498225 -0.21465284 0.62760425
0.12140202 -0.20199983 0.59060925
0.12895164 -0.20807104 0.60836023
0.14212151 -0.21220353 0.62044293
0.1479246 -0.21485382 0.62819177
0.16809994 -0.2201761 0.64375329
0.19133021 -0.21236208 0.62090659
0.19191694 -0.2086712 0.61011505
0.19628473 -0.21055897 0.6156345
0.21095079 -0.21477342 0.62795681
0.22141664 -0.19665161 0.57497221
0.2657561 -0.21901375 0.64035469
0.25726709 -0.20669529 0.60433799
0.23855071 -0.17496713 0.51157069
0.26345879 -0.1864012 0.54500186
0.2539188 -0.16988668 0.49671659
0.31646779 -0.1939 0.56692696
0.35748789 -0.20941138 0.61227924
0.33654264 -0.18818627 0.55022115
0.35615364 -0.17968738 0.52537185
0.3700155 -0.17104211 0.50009471
0.48393616 -0.21681325 0.63392097
-0.050169028 -0.14559157 0.42811587
-0.044672508 -0.14557084 0.42805496
-0.043047644 -0.14626722 0.43010277
0.12755321 -0.23017517 0.67683637
0.1260346 -0.20426786 0.60065532
0.14583528 -0.21061507 0.6193192
0.14458044 -0.19801874 0.58227944
0.16725709 -0.22145198 0.65118551
0.17154691 -0.21130651 0.62135255
0.18405031 -0.20891698 0.61432582
0.19421895 -0.20997368 0.61743331
0.19134514 -0.20409331 0.60014194
0.21437877 -0.21565066 0.63412642
0.21964052 -0.21683107 0.63759756
0.20939381 -0.19811113 0.58255112
0.25731769 -0.18263634 0.53704703
0.26169547 -0.18491866 0.54375839
0.27878866 -0.18092696 0.53202057
0.28678042 -0.18460746 0.54284322
0.29871312 -0.17991465 0.52904385
0.3554064 -0.20625344 0.60649389
0.35294324 -0.2040796 0.60010159
0.34618002 -0.19589756 0.57604212
0.35155398 -0.16443439 0.48352373
0.3814024 -0.17735282 0.52151078
0.47656295 -0.21229617 0.62426257
-0.045311201 -0.14386168 0.42546174
0.13108183 -0.21562628 0.63770092
0.17188162 -0.20266362 0.5993647
0.17117132 -0.20033304 0.5924722
0.17897506 -0.20491835 0.60603273
0.19446957 -0.21339245 0.63109457
0.190118 -0.2029857 0.60031736
0.2025857 -0.19286762 0.57039368
0.20635846 -0.19528426 0.57754076
0.24880818 -0.21256806 0.62865639
0.2450919 -0.16279726 0.48146239
0.26273325 -0.16614416 0.49136075
0.2652815 -0.1670877 0.49415118
0.33738831 -0.20754643 0.61380523
0.34143558 -0.2014208 0.59568906
0.36146957 -0.17163749 0.50760692
0.37503314 -0.17390229 0.51430494
0.47500753 -0.21583192 0.63830918
0.48543528 -0.21993838 0.65045357
0.48280308 -0.21565767 0.63779366
0.48548794 -0.21206681 0.6271739
0.48104367 -0.20954688 0.61972141
0.12692712 -0.2097725 0.62397671
0.15679361 -0.22385174 0.66585594
0.17194337 -0.21780372 0.64786607
0.18937477 -0.19704008 0.58610368
0.20540126 -0.20820619 0.61931759
0.20966861 -0.19610275 0.58331549
0.25983524 -0.2072798 0.61656207
0.24010776 -0.1707577 0.50792569
0.27023271 -0.1904594 0.56652915
0.27415502 -0.19066092 0.5671286
0.26025528 -0.1755608 0.52221268
0.25669864 -0.17096195 0.50853318
0.24456391 -0.16219346 0.48245093
0.25299338 -0.16431962 0.4887754
0.34917372 -0.20105267 0.59803933
0.35293558 -0.20174168 0.60008872
0.36212879 -0.17147647 0.51006365
0.35227352 -0.16336706 0.48594192
0.35341138 -0.16341294 0.48607835
0.46122465 -0.21017526 0.62517458
-0.050813168 -0.14233555 0.42584565
0.11559081 -0.19826496 0.5931778
0.11805667 -0.20029758 0.59925908
0.12882061 -0.21167053 0.63328499
0.13823588 -0.20170835 0.60347968
0.15186177 -0.21361788 0.63911134
0.19634271 -0.21297008 0.637173
0.20410912 -0.20703405 0.61941361
0.24155471 -0.21441923 0.64150876
0.23543279 -0.20663914 0.61823195
0.25750512 -0.20017207 0.59888339
0.2877872 -0.20075914 0.60064
0.30776888 -0.20819716 0.62289321
0.29913861 -0.16938625 0.50677711
0.34390336 -0.17009769 0.50890571
0.34062675 -0.16637219 0.49775961
0.35870245 -0.16938162 0.50676328
0.35541546 -0.16484289 0.49318415
0.48736164 -0.21519029 0.6438157
0.47891152 -0.20968311 0.62733901
-0.050807726 -0.14149232 0.42579982
-0.049112331 -0.14185278 0.42688456
-0.044479564 -0.14162745 0.42620647
0.14298932 -0.21973225 0.66125095
0.16142285 -0.21418642 0.64456177
0.17508125 -0.20910919 0.62928259
0.19418815 -0.20940781 0.63018125
0.19945297 -0.20649174 0.62140572
0.21769947 -0.21131095 0.63590837
0.24162246 -0.20734692 0.62397927
0.24950962 -0.20948997 0.63042843
0.30325007 -0.20394695 0.61374754
0.25536489 -0.16882123 0.50804204
0.27070576 -0.16689838 0.50225556
0.33161885 -0.19816653 0.59635228
0.3310529 -0.18910614 0.56908637
0.32589796 -0.18280329 0.55011892
0.13778399 -0.22376466 0.67734939
0.14511727 -0.21739994 0.65808284
0.15163623 -0.21468109 0.64985281
0.16102666 -0.21241058 0.64297968
0.18125392 -0.22029182 0.66683662
0.17954911 -0.20530476 0.62146997
0.2011722 -0.21418431 0.64834899
0.20396428 -0.21567136 0.65285039
0.20353621 -0.1870642 0.56625473
0.20517044 -0.18635003 0.56409287
0.20893046 -0.18756074 0.56775779
0.24387988 -0.2139646 0.6476838
0.25481397 -0.16818652 0.50911093
0.35458559 -0.197731 0.59854382
0.32578975 -0.18102024 0.54795933
0.33953717 -0.16494095 0.49928635
0.35385314 -0.16819501 0.50913656
0.37121645 -0.16916497 0.51207268
0.46366468 -0.20583229 0.62306678
0.48318732 -0.20792963 0.62941557
-0.055995259 -0.14878401 0.45304468
-0.049236625 -0.14054754 0.42796481
-0.048181243 -0.14013836 0.4267188
0.14339127 -0.2156399 0.65661973
0.17274581 -0.21205029 0.64568949
0.19729105 -0.20458797 0.62296683
0.20131527 -0.20736156 0.63141233
0.22215605 -0.20541839 0.62549537
0.20819867 -0.18798746 0.57241857
0.23483673 -0.20366198 0.62014711
0.24892327 -0.20880723 0.63581443
0.31603035 -0.18312196 0.5576033
0.31783256 -0.18347435 0.55867618
0.3820169 -0.17255341 0.5254221
0.11386857 -0.19288185 0.59081972
0.15331209 -0.2125518 0.65107119
0.1545077 -0.20314604 0.62226021
0.15721078 -0.20320176 0.62243092
0.17894439 -0.21324797 0.65320349
0.17707269 -0.20463128 0.6268096
0.21764578 -0.20755051 0.63575161
0.24590123 -0.20617662 0.63154322
0.24760634 -0.20424277 0.62561953
0.29844201 -0.19978271 0.61195797
0.25978199 -0.17239201 0.52805698
0.30910107 -0.19823045 0.60720307
0.31482866 -0.17349441 0.53143382
0.38001284 -0.17113504 0.52420682
0.48525304 -0.20927374 0.64103025
0.48236683 -0.20628174 0.6318652
0.4829523 -0.20424476 0.62562561
-0.050630864 -0.13769978 0.42431775
0.12076476 -0.19679765 0.60642594
0.13880908 -0.21039563 0.64832789
0.14531778 -0.20210308 0.62277466
0.17871852 -0.20376158 0.62788516
0.19316994 -0.20343435 0.62687689
0.20200907 -0.20424326 0.62936926
0.2042799 -0.20249397 0.62397915
0.2186183 -0.20595045 0.63463026
0.23741958 -0.20119278 0.61996955
0.2395319 -0.1996401 0.61518496
0.3011969 -0.19282052 0.59417057
0.31735542 -0.20146602 0.6208114
0.33937749 -0.20036672 0.61742407
0.36183619 -0.19892928 0.61299449
0.34452957 -0.16441099 0.50662756
0.43280238 -0.2020891 0.62273157
-0.050578371 -0.14181329 0.43962735
0.11540261 -0.19531807 0.60549444
0.14195381 -0.21175915 0.65646249
0.15435153 -0.19224907 0.59598064
0.21896607 -0.20504221 0.63563973
0.22943924 -0.18599854 0.57660347
0.23537652 -0.18778566 0.58214378
0.25467029 -0.17145623 0.53152174
0.25789037 -0.17208877 0.53348267
0.31026587 -0.19578522 0.60694271
0.35229856 -0.19252527 0.59683675
0.30340651 -0.16057369 0.49778542
0.32432327 -0.168686 0.5229339
0.29698166 -0.15133597 0.46914807
0.30831793 -0.1550191 0.48056597
0.35693777 -0.16315816 0.50579751
0.38371453 -0.17074376 0.52931309
0.48476776 -0.20541424 0.63679308
0.4662793 -0.19377169 0.6007008
0.13317429 -0.20144708 0.62828159
0.18689556 -0.19720374 0.61504722
0.19373707 -0.20019817 0.62438661
0.20486459 -0.19933875 0.62170601
0.21430203 -0.20197147 0.6299172
0.22432318 -0.20750503 0.64717555
0.21477534 -0.19625276 0.61208141
0.24989164 -0.18821494 0.58701271
0.35515031 -0.19503248 0.60827553
0.30304453 -0.15997647 0.49894133
0.30713373 -0.15197404 0.47398299
0.35608128 -0.1617856 0.50458378
0.46502066 -0.20093638 0.62668878
0.46313092 -0.19954503 0.62234938
0.47308353 -0.19869705 0.61970472
0.46963617 -0.19292794 0.60171181
-0.046329416 -0.13590869 0.42646384
0.12229154 -0.20448239 0.64163929
0.12996337 -0.20361038 0.63890284
0.1313535 -0.20364843 0.63902241
0.13448247 -0.20219243 0.63445348
0.13859892 -0.20630115 0.64734614
0.15459754 -0.18714543 0.58723807
0.17972912 -0.19679734 0.6175245
0.20292051 -0.197531 0.61982673
0.2183663 -0.19712338 0.61854762
0.24406566 -0.19135909 0.60045993
0.45337245 -0.1964124 0.61631668
0.46430394 -0.19941007 0.62572283
0.48626852 -0.20646466 0.64785933
0.4860433 -0.20520036 0.64389211
-0.049045388 -0.1350285 0.42630282
0.11176402 -0.18784587 0.59305429
0.13100392 -0.19978991 0.63076335
0.15927613 -0.20144545 0.63598979
0.16019779 -0.20089656 0.63425714
0.16266878 -0.19413827 0.61292022
0.1979073 -0.19273385 0.60848629
0.21739158 -0.19865422 0.62717772
0.24003717 -0.17859997 0.56386364
0.22761934 -0.16767673 0.52937758
0.30963632 -0.17636923 0.55682093
0.2724182 -0.1545756 0.48801553
0.45264393 -0.19661422 0.62073714
0.46729255 -0.19946918 0.62975049
0.47215343 -0.20096527 0.63447386
0.48123381 -0.19745757 0.62339967
0.1344727 -0.20594049 0.65419704
0.13953939 -0.20313875 0.64529705
0.14181954 -0.19860594 0.630898
0.15935843 -0.20379081 0.64736849
0.18276906 -0.20521934 0.65190631
0.1797474 -0.20029953 0.63627785
0.18147835 -0.19068669 0.60574144
0.20675328 -0.19498721 0.61940247
0.21641001 -0.1989975 0.63214177
0.24191283 -0.17033839 0.54110241
0.26472965 -0.15280122 0.4853932
0.27865735 -0.15714523 0.49919254
0.33429214 -0.172654 0.54845816
0.33002672 -0.16926391 0.53768927
0.33133602 -0.16934574 0.53794909
0.32028484 -0.15663151 0.49756062
0.33450091 -0.15935092 0.50619924
0.44815388 -0.2005219 0.63698411
0.46056724 -0.19941232 0.63345951
0.48099768 -0.19724138 0.62656325
0.4870843 -0.19645552 0.62406683
-0.04928375 -0.13401894 0.42837459
0.12668721 -0.20339328 0.65012109
0.13589145 -0.20469938 0.65429586
0.14171705 -0.19355592 0.6186772
0.14869507 -0.1993659 0.63724816
0.18615116 -0.20772578 0.66396946
0.21638903 -0.19774924 0.63208044
0.21904153 -0.19411373 0.62046021
0.24239145 -0.20370667 0.65112281
0.22940122 -0.1895252 0.60579354
0.23983072 -0.18755569 0.59949815
0.2434632 -0.18739291 0.5989778
0.2427704 -0.18588221 0.59414923
0.23807655 -0.16740204 0.5350796
0.30563971 -0.1706436 0.54544085
0.31849676 -0.15479505 0.49478287
0.32122591 -0.15560482 0.49737123
0.44114459 -0.19676422 0.62893206
0.46864289 -0.1970221 0.62975645
0.47525173 -0.19586267 0.62605041
-0.047212671 -0.13511971 0.43459406
0.12174097 -0.20315039 0.65340525
0.13601214 -0.20360787 0.65487695
0.17631871 -0.20327966 0.65382123
0.17742713 -0.202949 0.65275759
0.19822307 -0.18948644 0.60945719
0.21524128 -0.1942651 0.62482685
0.23379123 -0.1963855 0.63164711
0.24693623 -0.1849938 0.59500718
0.24554332 -0.18115143 0.58264875
0.2336408 -0.16405012 0.52764475
0.26655912 -0.1737452 0.55882764
0.36720949 -0.1866577 0.6003589
0.31698972 -0.1531052 0.49244177
0.34651977 -0.16251172 0.52269667
0.46534792 -0.19611079 0.63076359
0.4737038 -0.19511022 0.62754518
0.47762129 -0.19561595 0.62917191
-0.058294304 -0.14324528 0.46362814
-0.049994439 -0.1342617 0.43455184
0.13200428 -0.20262811 0.65582687
0.15076751 -0.19257617 0.62329292
0.15306163 -0.19211143 0.62178868
0.17646949 -0.20218116 0.6543802
0.20133357 -0.20047835 0.6488688
0.21335664 -0.19748637 0.63918525
0.21698524 -0.19222897 0.6221689
0.22298132 -0.1916678 0.62035275
0.23763306 -0.19388594 0.62753201
0.23660085 -0.19196025 0.62129915
0.34656796 -0.18474735 0.59795392
0.36385545 -0.18508975 0.59906214
0.36621758 -0.18498936 0.59873736
0.46395203 -0.20312701 0.6574415
-0.052325159 -0.13226503 0.4308005
0.12178393 -0.20068029 0.65363586
0.13310583 -0.20089999 0.65435147
0.15008813 -0.19392914 0.63164669
0.19258843 -0.20167735 0.65688342
0.17857185 -0.18564592 0.60466743
0.18273416 -0.18860817 0.61431575
0.21239628 -0.19661932 0.64040887
0.22036919 -0.19049592 0.62046438
0.22203662 -0.18853363 0.6140731
0.23184501 -0.19231483 0.62638885
0.23581673 -0.19337599 0.62984514
0.22894949 -0.17385039 0.56624818
0.24266663 -0.17860159 0.58172333
0.31656823 -0.16707708 0.54418695
0.48391214 -0.19299665 0.6286096
-0.049943555 -0.13243687 0.43410939
0.1286564 -0.19709644 0.64605427
0.13132846 -0.19905354 0.6524694
0.14647803 -0.20871758 0.68414676
0.15022367 -0.19287506 0.63221711
0.17717826 -0.20043828 0.65700829
0.21308698 -0.19600946 0.64249128
0.24997433 -0.16059794 0.52641726
0.26478091 -0.16710199 0.54773676
0.35537058 -0.16954874 0.55575681
0.14275418 -0.20211501 0.66675395
0.14265293 -0.19997534 0.65969545
0.17275503 -0.19731657 0.65092444
0.18807167 -0.19445294 0.6414777
0.20156981 -0.18786567 0.6197471
0.21716252 -0.19595957 0.6464479
0.21797231 -0.18603742 0.61371583
0.23475771 -0.18686904 0.61645919
0.25057936 -0.19401854 0.64004457
0.23663081 -0.17463778 0.57610983
0.22864336 -0.15805107 0.52139211
0.23330437 -0.16049084 0.52944058
0.24330626 -0.14799058 0.48820376
0.36629945 -0.18090537 0.59678578
0.31495646 -0.15394028 0.5078311
0.33576322 -0.15655652 0.51646173
0.45518109 -0.18977673 0.62605143
0.46657035 -0.19282472 0.63610631
0.47575688 -0.19214214 0.63385445
0.47962695 -0.19260822 0.63539207
0.12434681 -0.19010662 0.63118804
0.1439617 -0.20455942 0.67917401
0.14691845 -0.18791729 0.62391913
0.20598981 -0.19075373 0.6333366
0.22229135 -0.1840758 0.61116475
0.22873102 -0.18400206 0.61091983
0.24269646 -0.15747887 0.52285796
0.24472468 -0.15806699 0.52481079
0.26519051 -0.16596101 0.55102044
0.34885579 -0.1626876 0.54015207
0.46802089 -0.19051805 0.63255411
0.47785142 -0.19120574 0.63483727
-0.059417065 -0.13454871 0.44962838
-0.047344822 -0.12547645 0.41931117
-0.042979553 -0.12076545 0.40356818
-0.04168852 -0.12203614 0.40781456
0.12543419 -0.20379721 0.68103987
0.15861198 -0.18952273 0.63333815
0.17959072 -0.20087504 0.67127466
0.18061064 -0.18169415 0.6071769
0.19273199 -0.18460315 0.616898
0.21731021 -0.19357735 0.64688754
0.22454411 -0.18474095 0.61735857
0.23324637 -0.1874935 0.62655675
0.24170466 -0.16990513 0.56778079
0.23559171 -0.15921308 0.53205067
0.2474253 -0.15805525 0.52818143
0.25463641 -0.16119079 0.53865969
0.28579882 -0.15619913 0.52197886
0.35020894 -0.16226435 0.54224718
0.34449545 -0.15856753 0.52989346
0.34401849 -0.15782912 0.52742589
0.46775287 -0.18917975 0.6321919
0.47043934 -0.18596858 0.62146097
0.47041956 -0.18543714 0.61968493
-0.058852706 -0.13029729 0.43826887
0.12386812 -0.18897997 0.63565445
0.1244484 -0.18780544 0.63170373
0.14099786 -0.18130744 0.60984707
0.1523644 -0.18562743 0.62437773
0.15280503 -0.18454777 0.62074602
0.16326615 -0.18142916 0.61025637
0.18932529 -0.19198243 0.64575338
0.19155702 -0.1739551 0.58511662
0.22163223 -0.19740053 0.66397768
0.24058667 -0.18170491 0.61118406
0.25893119 -0.15924445 0.53563571
0.27375698 -0.14922825 0.50194526
0.45201021 -0.18592158 0.62536711
0.454992 -0.18604767 0.62579137
0.46597254 -0.18832321 0.63344532
0.47130501 -0.18937787 0.63699269
0.46448556 -0.1798825 0.60505408
-0.058052354 -0.1318831 0.44652307
-0.052746188 -0.12390243 0.41950259
0.1525144 -0.18788624 0.6361357
0.17529134 -0.19507675 0.66048098
0.19567282 -0.17886612 0.60559589
0.22061455 -0.19520898 0.66092885
0.22944334 -0.1841543 0.62350023
0.23995303 -0.17436078 0.59034204
0.24215463 -0.15198472 0.51458222
0.46066207 -0.18936101 0.64112872
0.45448336 -0.17833343 0.60379225
-0.04559537 -0.1207706 0.41160864
-0.042513594 -0.11952641 0.40736818
-0.042715129 -0.12260404 0.41785729
0.15110815 -0.18329431 0.62470126
0.17488118 -0.18163675 0.61905175
0.19173191 -0.18006556 0.61369675
0.21749291 -0.18876268 0.64333814
0.20797268 -0.17824616 0.60749614
0.22479346 -0.18028162 0.61443323
0.24632636 -0.18261489 0.62238562
0.25227797 -0.17653996 0.60168087
0.24859497 -0.16237465 0.55340296
0.24649525 -0.15873735 0.54100633
0.26435044 -0.14277537 0.48660499
0.45420578 -0.18942219 0.64558601
0.47870731 -0.19606651 0.66823113
0.45841503 -0.1844534 0.62865138
0.46888718 -0.18174195 0.6194104
0.46513575 -0.17827447 0.60759258
-0.047670819 -0.11439511 0.39248058
0.12718444 -0.19449915 0.66731125
0.11822156 -0.17878747 0.61340588
0.13721427 -0.18867865 0.64734155
0.14561312 -0.19626941 0.67338496
0.15955286 -0.17809257 0.61102152
0.17799531 -0.19086654 0.65484828
0.17593509 -0.18718542 0.64221841
0.18628061 -0.17994173 0.61736596
0.21586326 -0.18151641 0.62276846
0.258367 -0.18239211 0.62577301
0.26982608 -0.18852964 0.64683026
0.25391906 -0.15242419 0.5229553
0.26569071 -0.13979827 0.47963688
0.3321054 -0.15343142 0.52641118
0.39272639 -0.17435004 0.59818125
0.44341132 -0.18538463 0.63603997
0.45312089 -0.18828957 0.64600652
0.46211919 -0.18914682 0.64894789
-0.04402915 -0.11734051 0.40528968
0.12760235 -0.1916869 0.66207927
0.15222232 -0.17903474 0.61837918
0.1557643 -0.18007353 0.62196714
0.1639684 -0.18482585 0.63838154
0.17466927 -0.17766811 0.61365902
0.1875914 -0.17999917 0.6217103
0.20223257 -0.18364112 0.63428938
0.21283258 -0.18945651 0.65437561
0.22360876 -0.17695481 0.61119527
0.24187154 -0.17411497 0.60138649
0.26744315 -0.17486665 0.60398275
0.26798889 -0.14170714 0.48945108
0.28113183 -0.13169234 0.45486036
0.46407014 -0.19097105 0.6596067
0.46567377 -0.17710422 0.6117112
-0.0497347 -0.12205087 0.4244093
0.14986382 -0.18137643 0.63070273
0.15487346 -0.17784126 0.61840999
0.17960341 -0.1870793 0.65053362
0.19897307 -0.18441285 0.64126158
0.20156263 -0.18427423 0.64077932
0.2149187 -0.17401883 0.60511833
0.23334819 -0.17621581 0.61275768
0.24328841 -0.17212932 0.59854782
0.24438708 -0.15141003 0.52650023
0.25397 -0.15380599 0.53483176
0.4543913 -0.18078932 0.62866133
-0.044504799 -0.1243549 0.43536457
0.13289981 -0.18277469 0.63989139
0.18261971 -0.18605436 0.65137345
0.18419111 -0.17686839 0.6192134
0.20065407 -0.17976049 0.6293385
0.21129157 -0.186786 0.65393496
0.22189194 -0.17845035 0.62475193
0.2282421 -0.17819548 0.62385958
0.24485603 -0.17962343 0.62885892
0.24418095 -0.17527953 0.6136508
0.23738487 -0.15312845 0.53610033
0.25988141 -0.15774186 0.55225182
0.24716799 -0.14800842 0.51817524
0.25734708 -0.15006924 0.52539009
0.25826538 -0.13368756 0.46803805
0.26074576 -0.13445075 0.47070998
0.38569999 -0.16890369 0.59132922
0.46137363 -0.1823263 0.63832158
0.4709346 -0.1776972 0.62211519
0.47555625 -0.17694311 0.61947501
0.48148862 -0.17717721 0.62029463
-0.050382886 -0.11367635 0.40070683
-0.048327621 -0.11916769 0.42006364
-0.045608915 -0.11680381 0.411731
0.14807816 -0.18687777 0.65874034
0.15088746 -0.18862958 0.6649155
0.15290321 -0.18936595 0.66751117
0.1491434 -0.17806374 0.627671
0.15110432 -0.17721672 0.62468535
0.15172774 -0.17638931 0.62176865
0.15281016 -0.17610513 0.62076694
0.16688034 -0.17838088 0.62878883
0.17909892 -0.17586251 0.61991167
0.18605554 -0.18002972 0.63460118
0.19360331 -0.18074489 0.63712186
0.19640677 -0.18208136 0.64183307
0.20527177 -0.16904679 0.59588641
0.23484664 -0.17794548 0.62725419
0.2435226 -0.17646052 0.62201953
0.24521717 -0.16936675 0.59701431
0.25435722 -0.14796165 0.52156174
0.36775395 -0.15942617 0.56197387
0.36448216 -0.15597014 0.54979151
-0.050231457 -0.11860649 0.42097062
0.12588523 -0.18820176 0.66798532
0.13214107 -0.18112098 0.64285374
0.15466951 -0.1817608 0.64512444
0.15474612 -0.17558943 0.62322044
0.19949453 -0.17747824 0.62992454
0.19722261 -0.17428084 0.61857593
0.22316739 -0.17492723 0.62087029
0.24688177 -0.17574959 0.62378889
0.24960782 -0.17673574 0.62728912
0.2681973 -0.1723126 0.61159015
0.24755406 -0.14622143 0.5189845
0.25329956 -0.14633654 0.51939309
0.2901243 -0.14531994 0.51578492
0.36673197 -0.1563614 0.55497438
0.45552415 -0.17600259 0.6246869
0.46751136 -0.17499204 0.62110019
0.12752953 -0.18934424 0.67671037
0.11716449 -0.17009693 0.60792124
0.14174268 -0.18161057 0.6490705
0.15570876 -0.18843898 0.67347527
0.1641932 -0.17593656 0.62879193
0.17551336 -0.18210422 0.65083474
0.1817859 -0.18281649 0.65338045
0.19288613 -0.17514308 0.62595606
0.19539596 -0.1714752 0.61284709
0.21862742 -0.18564022 0.66347241
0.24548802 -0.16988169 0.60715193
0.24920626 -0.17065062 0.60990012
0.244183 -0.14787313 0.52849406
0.28336248 -0.14149119 0.50568521
0.29512927 -0.13740852 0.49109384
0.36382329 -0.16701566 0.59690869
0.37095702 -0.15913017 0.56872612
0.43866804 -0.17498791 0.62540138
0.45451286 -0.18075773 0.64602262
0.45768484 -0.18091999 0.64660239
-0.05288947 -0.11303531 0.40681162
-0.047374107 -0.11658046 0.41957062
0.15208116 -0.17945197 0.64584368
0.16375776 -0.17283598 0.622033
0.23738663 -0.17617176 0.63403827
0.24104378 -0.16922531 0.60903829
0.24442002 -0.16976197 0.61096972
0.24738362 -0.1682253 0.60543919
0.26308659 -0.1635084 0.58846313
0.27194723 -0.13640849 0.49093121
0.2756989 -0.13670793 0.49200889
0.28516939 -0.13091747 0.47116917
0.3117263 -0.14260581 0.51323533
0.38296673 -0.16102968 0.5795424
0.4571723 -0.18000509 0.64783442
0.47121048 -0.1724731 0.62072688
-0.046258252 -0.11748587 0.42580867
-0.043443266 -0.11255075 0.40792224
-0.043392897 -0.11712134 0.42448753
0.13640478 -0.17404573 0.63080096
0.14319415 -0.17916687 0.64936167
0.16729036 -0.1753289 0.6354515
0.18119308 -0.17177047 0.6225546
0.19943926 -0.18108869 0.65632707
0.21729103 -0.17296605 0.62688792
0.22008331 -0.17097166 0.6196593
0.25438476 -0.15774801 0.5717324
0.27778497 -0.16588402 0.60122001
0.28049079 -0.1652071 0.59876668
0.28643817 -0.16348848 0.59253782
0.46564651 -0.18041937 0.65390116
0.46706066 -0.17776597 0.64428443
0.48390409 -0.17343819 0.62859905
-0.056750536 -0.12158862 0.44380605
0.13654763 -0.17130704 0.62528127
0.18288572 -0.18008833 0.65733355
0.19103703 -0.16752395 0.61147285
0.20218617 -0.1725782 0.62992114
0.20756747 -0.17599949 0.64240891
0.22491075 -0.18578918 0.67814207
0.2726399 -0.16393931 0.59838849
0.26945275 -0.14321211 0.52273297
0.24972981 -0.13109873 0.47851852
0.46628955 -0.16828331 0.61424452
0.48836815 -0.17575668 0.64152271
0.49340644 -0.17608668 0.64272726
-0.045867044 -0.11715548 0.4306812
0.13754502 -0.18014964 0.66225713
0.14267595 -0.17265551 0.63470763
0.14918786 -0.17883535 0.6574257
0.16888516 -0.18502058 0.68016362
0.17219894 -0.17098874 0.62858039
0.18044552 -0.17375475 0.63874888
0.19752531 -0.17807561 0.65463293
0.20304507 -0.18049476 0.66352588
0.20727934 -0.17450784 0.64151734
0.21445085 -0.17935903 0.65935093
0.21494696 -0.16973531 0.62397271
0.22451994 -0.16991496 0.62463307
0.25050363 -0.17695273 0.65050513
0.2693069 -0.1720877 0.63262028
0.28034186 -0.16279221 0.59844875
0.27899131 -0.16054295 0.5901801
0.28441185 -0.16075484 0.59095913
0.25116128 -0.13199562 0.48523596
0.24799721 -0.12979682 0.47715268
0.36959413 -0.14377385 0.52853441
0.36315182 -0.14040944 0.51616627
0.46235499 -0.17556535 0.64540482
0.49272862 -0.17508428 0.64363623
0.12069914 -0.17103691 0.63328379
0.14032157 -0.17700793 0.65539229
0.1647184 -0.18230444 0.67500329
0.1995414 -0.17368616 0.64309311
0.22231518 -0.17760475 0.65760219
0.25774977 -0.17878532 0.66197336
0.27181068 -0.16988726 0.62902731
0.28231934 -0.1605709 0.59453237
0.26434246 -0.14083771 0.52146798
0.37400645 -0.1440102 0.53321439
0.44730812 -0.17067461 0.63194251
0.45120579 -0.1711283 0.63362235
0.45889217 -0.17249033 0.63866544
0.48651928 -0.17116435 0.63375574
0.48449019 -0.16857316 0.6241616
-0.046202756 -0.11403717 0.42529774
0.14018419 -0.17913809 0.66808927
0.16508575 -0.17233886 0.6427319
0.17315598 -0.17636095 0.65773201
0.17880775 -0.1750129 0.65270436
0.19100545 -0.17468572 0.65148431
0.21705802 -0.17777625 0.66301048
0.21807466 -0.17080311 0.63700426
0.24126913 -0.16893086 0.63002175
0.25315934 -0.17338525 0.64663422
0.24304286 -0.15866102 0.59172076
0.26461729 -0.13996916 0.52201015
0.27037665 -0.14181964 0.52891141
0.29644334 -0.12642068 0.47148147
0.31688771 -0.13199836 0.49228328
0.48709705 -0.17108658 0.63806134
0.12123979 -0.18154475 0.68201029
0.12903661 -0.17248185 0.64796358
0.14705612 -0.16775975 0.63022405
0.16081777 -0.16948673 0.63671184
0.17947389 -0.17857081 0.67083794
0.18089986 -0.17307609 0.65019602
0.18080862 -0.17166997 0.64491361
0.18976118 -0.17355452 0.65199322
0.20313124 -0.17426509 0.65466279
0.20471674 -0.17323861 0.65080637
0.19914749 -0.15293807 0.57454336
0.22799391 -0.16884422 0.63429803
0.21657191 -0.15575472 0.58512461
0.23182231 -0.16388343 0.61566192
0.25453639 -0.1749748 0.65732884
0.24801628 -0.15990162 0.6007033
0.27110913 -0.16700904 0.6274038
0.27015519 -0.14009026 0.5262779
0.30389255 -0.13043123 0.48999178
0.27874252 -0.11841256 0.44484121
0.30754492 -0.12348753 0.46390635
0.49255583 -0.17079306 0.64161932
0.12054583 -0.1729489 0.65449876
0.17361513 -0.17426416 0.65947616
0.17999384 -0.17227478 0.6519478
0.17596343 -0.16584936 0.62763178
0.22188413 -0.1767851 0.66901624
0.23176472 -0.18230769 0.68991554
0.21836548 -0.16855054 0.63785392
0.2303694 -0.16835622 0.63711846
0.21899018 -0.14621174 0.55331618
0.26697493 -0.13742989 0.52008253
0.29416999 -0.13216829 0.50017077
0.29420868 -0.13029172 0.4930692
0.33147272 -0.14074448 0.53262603
0.32462746 -0.13643229 0.51630723
0.30227223 -0.12245791 0.46342337
0.49147359 -0.16823621 0.63666433
-0.061854094 -0.12277571 0.46807009
-0.056355327 -0.1195986 0.45595777
-0.048294872 -0.11010888 0.41977906
0.14288375 -0.17681482 0.67408872
0.15803769 -0.17137468 0.65334862
0.16916077 -0.17132562 0.65316182
0.17934802 -0.17725481 0.67576623
0.17926419 -0.17031395 0.64930487
0.18378884 -0.17195038 0.65554368
0.18999481 -0.1737821 0.66252685
0.22714931 -0.17849804 0.68050599
0.21934058 -0.16805746 0.64070225
0.24223927 -0.17166919 0.65447158
0.24448645 -0.14623867 0.55752027
0.24520819 -0.13667797 0.52107102
0.28912893 -0.12848064 0.4898195
0.28716353 -0.12533812 0.47783893
0.30198565 -0.11909998 0.45405677
0.49951914 -0.16973215 0.6470868
-0.05500799 -0.11587394 0.44505671
-0.048006628 -0.10474845 0.40232506
-0.044448327 -0.10866277 0.41735953
0.13190696 -0.17062367 0.65534335
0.14242636 -0.16980557 0.65220106
0.15607265 -0.16507211 0.63402051
0.16697779 -0.16925806 0.65009815
0.18109785 -0.17484139 0.671543
0.17916995 -0.17028093 0.65402669
0.19958651 -0.17469212 0.67096961
0.21411002 -0.17139435 0.65830326
0.21524665 -0.17117931 0.65747744
0.1960595 -0.14726728 0.56563437
0.22263883 -0.14805943 0.56867707
0.22597857 -0.14628732 0.56187057
0.25218812 -0.15659651 0.60146672
0.25020611 -0.14230813 0.54658699
0.23947532 -0.13012896 0.49980846
0.30909744 -0.13535571 0.51988357
0.36287555 -0.15555038 0.59744883
0.37905341 -0.15749709 0.60492581
0.37945387 -0.15554136 0.59741396
0.32422975 -0.13201603 0.50705636
0.17433596 -0.16068831 0.62182665
0.17740382 -0.15985996 0.61862117
0.21055754 -0.16951987 0.65600252
0.23404899 -0.17890233 0.69231075
0.20532346 -0.15213586 0.58873069
0.21156833 -0.1558082 0.60294163
0.24193507 -0.15064378 0.58295661
0.25053519 -0.14691906 0.56854272
0.25025475 -0.14193556 0.54925787
0.24290229 -0.13218477 0.51152444
0.29994497 -0.11883277 0.45985532
0.30135578 -0.11822943 0.45752066
-0.047246933 -0.10731796 0.41844416
-0.045188397 -0.11337262 0.44205189
0.13717663 -0.17115498 0.66735154
0.15168874 -0.1682661 0.65608734
0.15553607 -0.16940181 0.66051573
0.15641895 -0.16296746 0.63542742
0.15948316 -0.16472967 0.64229846
0.17077348 -0.16911277 0.6593886
0.17736091 -0.16224645 0.63261628
0.22353038 -0.17285495 0.67397988
0.21528135 -0.14831564 0.57829833
0.22488421 -0.1489453 0.58075345
0.22496742 -0.14120632 0.55057842
0.23267131 -0.14088327 0.54931885
0.250541 -0.14236443 0.55509406
0.24772763 -0.13944514 0.54371136
0.25140509 -0.14085439 0.54920632
0.36106369 -0.15519267 0.60511279
0.3625392 -0.1536257 0.5990029
0.36524662 -0.15422833 0.60135269
0.36904594 -0.15474349 0.60336149
0.37018448 -0.15468042 0.60311538
0.36706683 -0.12910143 0.50338018
0.46640778 -0.15982461 0.62317324
0.47684097 -0.1624718 0.63349485
0.50296026 -0.16803142 0.65517247
-0.047587235 -0.10527869 0.41362849
-0.046797179 -0.10752598 0.4224579
0.18434288 -0.175377 0.6890372
0.19212453 -0.16092458 0.63225526
0.20433439 -0.16877738 0.66310787
0.20823298 -0.16735432 0.65751708
0.21110512 -0.1674031 0.65770847
0.21266468 -0.1542588 0.60606623
0.23867705 -0.15516916 0.60964274
0.23880723 -0.14953911 0.58752292
0.25228164 -0.14159617 0.55631608
0.28600779 -0.13668877 0.53703541
0.25820374 -0.12241805 0.48096728
0.3591882 -0.15376692 0.60413343
0.32351258 -0.12070373 0.47423187
0.34127164 -0.12575372 0.49407259
0.46681279 -0.16246232 0.63829678
0.41887632 -0.14535443 0.57108188
0.13849793 -0.16843203 0.66684538
0.15358484 -0.17257227 0.68323714
0.15385883 -0.1712518 0.67800939
0.17698313 -0.15359151 0.60808957
0.21800931 -0.16819726 0.66591579
0.2226606 -0.17067158 0.67571205
0.2268931 -0.17168859 0.67973852
0.23553266 -0.14483872 0.57343614
0.24265449 -0.14113931 0.55878961
0.26950574 -0.14940374 0.5915097
0.28147718 -0.1553117 0.61490023
0.284565 -0.15556277 0.6158942
0.26494816 -0.13782556 0.54567015
0.25532198 -0.11870919 0.46998584
0.26404983 -0.11993586 0.47484237
0.27538645 -0.1200111 0.4751403
0.36112061 -0.1528637 0.60520804
0.2829749 -0.11767668 0.46589807
0.46474078 -0.15639213 0.61917776
-0.060018178 -0.1138332 0.45417723
-0.058318026 -0.11430616 0.45606434
-0.049115114 -0.10504711 0.41912213
-0.047758944 -0.10601376 0.42297885
-0.046860337 -0.10602604 0.42302799
-0.045824602 -0.11005292 0.43909463
0.14073135 -0.16810086 0.67069685
0.16722228 -0.1631766 0.65105009
0.18634279 -0.15478583 0.61757207
0.22147189 -0.17179658 0.68544245
0.21885683 -0.16755138 0.66850483
0.22572349 -0.13992245 0.5582695
0.22950338 -0.1351227 0.53911918
0.26848012 -0.14908823 0.59483957
0.28141001 -0.15553176 0.62054807
0.28278342 -0.15061194 0.60091895
0.28761554 -0.14781465 0.58975822
0.29859954 -0.15279007 0.60960937
0.27396965 -0.12740116 0.50831139
0.25467828 -0.11523161 0.45975667
0.28501326 -0.12190171 0.4863694
0.36213902 -0.15157183 0.60474867
0.30184782 -0.12282986 0.49007267
0.44581592 -0.15189654 0.60604435
-0.048352174 -0.10451949 0.42027736
-0.047194172 -0.10595307 0.42604178
-0.045830484 -0.10921324 0.43915105
0.14859107 -0.16757743 0.67383581
0.18316804 -0.16628052 0.66862118
0.17938589 -0.15216249 0.61185199
0.19706409 -0.15904188 0.63951421
0.2054771 -0.15020414 0.60397714
0.24080095 -0.15465093 0.621858
0.26232061 -0.15022902 0.6040774
0.2747137 -0.15136638 0.60865068
0.29467791 -0.15159823 0.6095829
0.28823611 -0.14698446 0.59103078
0.24908507 -0.11269628 0.45315647
0.27719849 -0.12117527 0.48725095
0.2817553 -0.12270626 0.49340707
0.28408256 -0.12056106 0.48478115
0.32114369 -0.12833212 0.516029
0.21325268 -0.15180814 0.61523712
0.22905828 -0.1467693 0.59481603
0.22804545 -0.14531381 0.58891732
0.24604756 -0.15592436 0.63191909
0.2350722 -0.1457684 0.59075958
0.2405339 -0.1444983 0.58561224
0.2529541 -0.13960946 0.56579918
0.28731242 -0.15203096 0.61613995
0.2584447 -0.11380415 0.46121722
0.27678207 -0.11284036 0.45731136
0.31455392 -0.12514584 0.507182
0.32012907 -0.11801006 0.47826275
-0.047656983 -0.10739113 0.43868384
0.17431213 -0.16208988 0.66212368
0.17357084 -0.15155698 0.61909765
0.17290974 -0.14871231 0.60747719
0.19047861 -0.15904541 0.64968723
0.19646418 -0.15716858 0.64202058
0.22077772 -0.14687014 0.59995216
0.24608451 -0.15998831 0.65353882
0.23861706 -0.14839481 0.60618031
0.25532272 -0.1529699 0.62486923
0.26140231 -0.14809121 0.60494018
0.27102029 -0.14699629 0.60046756
0.2849884 -0.12594478 0.51447386
0.26328915 -0.11415299 0.46630543
0.2789554 -0.1124332 0.45928025
0.28496987 -0.11445457 0.46753728
0.41891283 -0.14755425 0.60274678
0.43940222 -0.14708182 0.60081685
0.1685458 -0.15936457 0.65620261
0.17331067 -0.15128116 0.62291843
0.24563947 -0.14155678 0.58287704
0.25747198 -0.14542536 0.59880638
0.23386259 -0.12764864 0.52560866
0.28861502 -0.15170409 0.62465978
0.28447801 -0.14681296 0.60452002
0.28663486 -0.14593759 0.60091555
0.27100167 -0.13736257 0.56560695
0.27433842 -0.13542908 0.55764562
0.27703133 -0.13558039 0.55826855
0.28251719 -0.13708432 0.56446117
0.28962073 -0.13817099 0.56893563
0.27074838 -0.10902595 0.44892746
0.31953365 -0.11556525 0.47585377
0.39696079 -0.13956997 0.57469612
0.41206199 -0.14443256 0.5947184
0.42342633 -0.14795944 0.60924077
0.42903852 -0.14946094 0.61542326
0.45803735 -0.15810882 0.65103215
0.15299115 -0.15795782 0.6556595
0.16812558 -0.15639313 0.6491645
0.17268948 -0.15068983 0.6254909
0.18311432 -0.15615979 0.64819622
0.21136464 -0.15970984 0.66293198
0.22002836 -0.14835487 0.61579889
0.2214161 -0.14752558 0.61235678
0.23292814 -0.15074061 0.6257019
0.2432175 -0.15386581 0.63867408
0.27247983 -0.13639767 0.5661664
0.27641183 -0.13775413 0.57179695
0.30138233 -0.14758842 0.61261761
0.28526965 -0.1373117 0.56996042
0.28645825 -0.13332893 0.55342859
0.44706124 -0.15449253 0.64127564
-0.049036749 -0.10378371 0.43429583
0.16066083 -0.14583613 0.61026931
0.18656313 -0.16798447 0.70295203
0.19393609 -0.1424922 0.5962764
0.19439888 -0.14097936 0.58994555
0.22498387 -0.15137735 0.63345736
0.25369233 -0.14915171 0.62414396
0.29658115 -0.15060835 0.63023937
0.28511664 -0.13555159 0.56723249
0.33079594 -0.11734925 0.49106252
-0.044187538 -0.10035861 0.42340797
0.14512171 -0.16227888 0.68464637
0.18044847 -0.14588371 0.61547619
0.18966785 -0.15222739 0.64223981
0.1881595 -0.14886205 0.62804168
0.20320942 -0.15312213 0.64601451
0.20056722 -0.14242166 0.60086995
0.2195632 -0.14922212 0.62956071
0.25116888 -0.15206391 0.64155024
0.22961573 -0.12350699 0.52106977
0.24442123 -0.12958509 0.54671299
0.27883971 -0.13261662 0.55950302
0.27602053 -0.12960823 0.54681075
0.32246843 -0.14645731 0.61789614
0.28157267 -0.10724097 0.45244443
0.32879817 -0.11717871 0.49437129
0.32656124 -0.11563829 0.48787224
0.34052834 -0.11944 0.50391138
0.35798424 -0.12516673 0.52807236
0.42540887 -0.1473476 0.62165242
0.40937787 -0.14091474 0.59451234
0.37284964 -0.12794401 0.53978944
-0.20014818 -0.18842965 0.80155063
-0.17971699 -0.19411843 0.82574964
-0.15879831 -0.18815337 0.80037528
-0.14738192 -0.18249014 0.77628481
-0.048346657 -0.096986279 0.41256464
-0.047701616 -0.09747006 0.41462255
0.1513166 -0.1524463 0.64848304
0.17938818 -0.16418454 0.6984157
0.1808795 -0.14827551 0.630741
0.19769283 -0.15081763 0.64155465
0.18444321 -0.13691111 0.58239865
0.19563505 -0.14047834 0.59757328
0.26012716 -0.15705307 0.66807961
0.24702293 -0.1475217 0.62753445
0.28608921 -0.14556079 0.61919302
0.27099183 -0.13355461 0.5681206
0.27383113 -0.1286146 0.54710662
0.28368223 -0.12991288 0.55262929
0.27984458 -0.1064396 0.45277759
0.41945419 -0.13847098 0.58903408
-0.2218508 -0.19080228 0.81841213
-0.19549198 -0.18409972 0.7896629
-0.17895922 -0.19170122 0.82226795
-0.16021551 -0.19031255 0.81631184
-0.14422297 -0.18545282 0.79546672
-0.14341997 -0.18887334 0.81013852
-0.043563802 -0.10147528 0.43526006
0.13985293 -0.15698743 0.67336959
0.17957039 -0.16164687 0.69335544
0.22871824 -0.15383677 0.65985531
0.22839111 -0.1526753 0.65487343
0.23131391 -0.1319814 0.56611055
0.24368533 -0.13619065 0.58416545
0.29877976 -0.14802139 0.63491118
0.43331707 -0.14716476 0.63123703
0.44725585 -0.14642769 0.62807554
0.45249954 -0.14770117 0.63353777
-0.20665923 -0.18812068 0.81369615
-0.18690127 -0.18576862 0.80352241
-0.048212189 -0.095116705 0.41141722
0.13637431 -0.14725958 0.63695574
0.19945714 -0.15614477 0.67538762
0.19260871 -0.14351292 0.62075001
0.19510959 -0.13868895 0.59988451
0.20074025 -0.13815203 0.59756207
0.24009882 -0.15351816 0.6640265
0.25838301 -0.15512253 0.67096609
0.24607357 -0.14220741 0.61510319
0.25082269 -0.14341952 0.62034595
0.22866298 -0.12481067 0.53985548
0.24267137 -0.12670267 0.54803896
0.258818 -0.13257344 0.57343233
0.26862273 -0.13694715 0.59235048
0.28655422 -0.14272542 0.61734372
0.30246878 -0.14792748 0.63984466
0.2688705 -0.1309038 0.56621051
0.27921802 -0.13353744 0.57760203
0.25947982 -0.11934834 0.51622868
0.27763635 -0.12715876 0.55001187
0.29816002 -0.13317536 0.57603592
0.3016949 -0.13310534 0.57573313
0.30059654 -0.13208205 0.571307
0.29102349 -0.12633605 0.54645336
0.29366699 -0.11378416 0.49216136
0.41259947 -0.13939396 0.60293382
-0.21835038 -0.18321487 0.79919773
-0.21650241 -0.1845517 0.80502927
-0.2047582 -0.18482262 0.80621111
-0.18672812 -0.18403561 0.80277801
-0.069164254 -0.079064623 0.34488621
-0.066452302 -0.082088694 0.3580775
-0.14243385 -0.18224572 0.79497033
0.16105551 -0.15679565 0.68395513
0.16217624 -0.15646656 0.68251967
0.17113362 -0.1399343 0.61040467
0.1755352 -0.1424474 0.62136698
0.24667253 -0.15366979 0.67031986
0.24978256 -0.13121888 0.57238716
0.2424567 -0.12613481 0.55021024
0.27735615 -0.14154463 0.61742896
0.30196619 -0.14643964 0.63878137
0.27150089 -0.13048546 0.56918788
0.28728384 -0.13214946 0.57644641
0.29498884 -0.12698048 0.55389905
0.40058064 -0.13763435 0.6003719
0.42189324 -0.14449421 0.63029528
-0.21591695 -0.18249162 0.80285227
-0.20266391 -0.18292016 0.80473751
-0.19730546 -0.17960796 0.7901662
-0.19605532 -0.18644968 0.82026553
-0.19009629 -0.18407476 0.80981708
-0.18739097 -0.18482079 0.81309932
-0.069353998 -0.079455957 0.34955797
-0.068180032 -0.080719687 0.35511759
-0.14309607 -0.17940007 0.78925127
-0.12858836 -0.18777497 0.82609576
-0.04801888 -0.094872259 0.41738021
0.14876245 -0.15793459 0.69481653
0.16211274 -0.15507871 0.68225211
0.1648387 -0.13571306 0.5970549
0.17922662 -0.14312667 0.62967032
0.18709964 -0.14400706 0.63354355
0.23763776 -0.15027709 0.66112781
0.25176564 -0.15642092 0.68815714
0.24873208 -0.15100743 0.66434097
0.25164059 -0.15104865 0.66452217
0.25557646 -0.14678337 0.64575773
0.24149849 -0.12396944 0.54539019
0.27771768 -0.13986163 0.6153062
0.2665084 -0.13295729 0.58493125
0.27462527 -0.12913173 0.56810117
0.29397756 -0.13408162 0.58987761
0.29597059 -0.13441417 0.59134072
0.29841709 -0.12736672 0.56033623
0.27645668 -0.10382654 0.45677367
0.41305491 -0.14116888 0.62105733
0.43092799 -0.13714066 0.60333562
-0.21853748 -0.1802613 0.79988223
-0.20830239 -0.18028097 0.79996949
-0.19571702 -0.17816319 0.79057205
-0.18649301 -0.18580821 0.82449573
-0.14425434 -0.17721613 0.78636974
-0.12879157 -0.18646297 0.82740122
-0.048251968 -0.094517305 0.41940621
-0.046758596 -0.096998103 0.43041438
0.1517358 -0.14521667 0.64437699
0.16898812 -0.14234719 0.63164419
0.18166764 -0.15062118 0.6683585
0.17099071 -0.1395739 0.61933798
0.1775821 -0.14274409 0.63340521
0.18411465 -0.14361559 0.63727242
0.1977822 -0.13979773 0.62033135
0.20311537 -0.13287812 0.58962655
0.25720015 -0.14968583 0.66420794
0.2324111 -0.12685663 0.56290698
0.24958386 -0.13552839 0.60138673
0.26629224 -0.12525 0.55577779
0.28833693 -0.13208345 0.58610034
0.30696115 -0.1358918 0.60299915
0.29634109 -0.1264134 0.56094027
0.30186534 -0.1272258 0.56454521
0.32965985 -0.12585983 0.55848402
0.34442604 -0.13055192 0.5793044
0.41310433 -0.14042938 0.62313408
0.40189901 -0.13235319 0.58729714
0.40114352 -0.13047437 0.57896012
0.43872392 -0.14138915 0.62739289
0.41306323 -0.13190982 0.58532983
0.47039545 -0.14886598 0.6605702
-0.2075987 -0.18261871 0.81739521
-0.19297314 -0.17720963 0.7931841
-0.068833277 -0.078354344 0.35071144
-0.13863695 -0.17709944 0.79269093
-0.13386926 -0.17529351 0.78460771
-0.13711706 -0.181824 0.81383789
-0.047427945 -0.095655829 0.42815214
-0.044827331 -0.095965587 0.42953867
0.18205915 -0.15968901 0.71476263
0.17219557 -0.14613244 0.65408373
0.22526175 -0.14430414 0.64590055
0.24493481 -0.15500693 0.69380563
0.23350668 -0.14513849 0.64963496
0.2392125 -0.14356305 0.64258325
0.25885442 -0.14852893 0.66481036
0.26374766 -0.13117498 0.58713472
0.27981898 -0.13850909 0.61996186
0.25132355 -0.12323678 0.55160356
0.30025721 -0.13518263 0.60507292
0.3036626 -0.1268791 0.56790632
0.27740303 -0.10132614 0.4535324
0.29384357 -0.10621785 0.47542745
0.29882112 -0.10764485 0.48181465
0.30013576 -0.10774712 0.48227239
0.29017159 -0.10172449 0.45531529
-0.18945374 -0.17874485 0.80707967
-0.1475119 -0.17207626 0.77696931
-0.1488013 -0.17555678 0.79268467
0.17455399 -0.14804669 0.66846931
0.23702827 -0.14182845 0.64039248
0.25585914 -0.1237883 0.55893636
0.29781592 -0.13952722 0.63000184
0.27366719 -0.12482719 0.5636273
0.28943604 -0.12333332 0.55688196
0.31431773 -0.1317683 0.5949682
0.30435419 -0.12707724 0.57378691
0.26952371 -0.10817558 0.4884409
0.27735555 -0.10149111 0.45825872
0.42349875 -0.13453861 0.60747701
0.43187734 -0.13512893 0.61014229
0.40658718 -0.12607388 0.56925642
-0.1839257 -0.18194577 0.8288089
-0.15163854 -0.17733362 0.80779928
-0.1415337 -0.17550813 0.79948372
-0.13665365 -0.18034327 0.82150924
0.15926023 -0.1484728 0.6763311
0.16781153 -0.13769735 0.62724614
0.21634144 -0.14412703 0.65653503
0.20199507 -0.13200092 0.60129762
0.26214001 -0.13383736 0.60966277
0.26590028 -0.12021971 0.54763114
0.2905049 -0.12963212 0.59050703
0.30977276 -0.13471824 0.61367571
0.30469874 -0.12712875 0.57910353
0.27772772 -0.10109208 0.46049997
0.38598713 -0.12343746 0.56228876
0.41983458 -0.13220362 0.60222089
0.41245881 -0.12869737 0.58624899
0.39883777 -0.12258525 0.55840665
-0.14342012 -0.17211619 0.79103875
-0.12803543 -0.17897107 0.82254362
0.17717193 -0.15134498 0.6955753
0.1759932 -0.14664647 0.67398107
0.17595057 -0.13866594 0.63730276
0.20426199 -0.14128955 0.64936084
0.20373519 -0.13903573 0.6390025
0.22601898 -0.14100906 0.64807177
0.23394972 -0.13832724 0.63574612
0.23472813 -0.13798608 0.63417834
0.23377167 -0.13663483 0.62796807
0.26726457 -0.14853546 0.68266279
0.26050591 -0.14168526 0.65117955
0.24793346 -0.13413066 0.61645877
0.22893895 -0.12064891 0.55449736
0.23096566 -0.12109011 0.55652505
0.24998917 -0.11994469 0.55126077
0.29329079 -0.12971619 0.59617013
0.27913192 -0.12031759 0.55297458
0.31150725 -0.1337066 0.61450982
0.29689282 -0.12584192 0.57836413
0.31449145 -0.13165684 0.60508937
0.2964173 -0.11733512 0.53926736
0.39808771 -0.12657376 0.5817278
0.36679879 -0.11140598 0.51201719
0.45687377 -0.13131984 0.6035406
-0.15038611 -0.17677923 0.81979549
-0.13911785 -0.17364961 0.80528212
-0.12009789 -0.17352365 0.80469835
0.16035761 -0.14422947 0.66884965
0.16762425 -0.14557421 0.67508548
0.16928381 -0.14576076 0.67595071
0.1779927 -0.14579391 0.67610419
0.19383825 -0.13951713 0.64699656
0.19657245 -0.13949475 0.64689273
0.20786354 -0.1396493 0.64760935
0.20401521 -0.13179797 0.61119968
0.22305161 -0.14227389 0.65978062
0.25759941 -0.1442471 0.66893125
0.25602317 -0.13800284 0.639974
0.23412417 -0.12164916 0.56413555
0.25363621 -0.12060707 0.55930299
0.25503039 -0.11902609 0.55197138
0.26660323 -0.12161441 0.56397426
0.30537033 -0.13682398 0.63450712
0.29439735 -0.12904206 0.59841937
0.32170689 -0.13514125 0.62670362
0.31215426 -0.12793234 0.59327328
0.29777941 -0.10008625 0.46413976
0.38488704 -0.12204538 0.56597298
0.36015669 -0.11038718 0.51190931
0.35655114 -0.10862211 0.50372386
0.39219716 -0.11876428 0.55075729
0.48696488 -0.14070457 0.65250319
0.46740416 -0.13428353 0.62272614
-0.11694844 -0.16988243 0.79498059
0.16431199 -0.15472995 0.72407287
0.17314059 -0.13505827 0.63201755
0.17608006 -0.13628788 0.63777173
0.17684864 -0.13479573 0.63078916
0.23078756 -0.13885783 0.64979798
0.2438591 -0.1376131 0.64397323
0.24999639 -0.14028461 0.65647459
0.25465384 -0.14210059 0.66497296
0.25793821 -0.14313447 0.66981095
0.25363827 -0.13621232 0.63741815
0.25604489 -0.13532415 0.63326174
0.24541046 -0.11958894 0.55962747
0.29550236 -0.13005355 0.60859764
0.31631404 -0.13222824 0.61877429
0.29438618 -0.1176508 0.55055773
0.28354001 -0.11109574 0.51988286
0.30708873 -0.11985286 0.56086254
0.42074278 -0.13138618 0.61483365
0.38585341 -0.11719684 0.54843336
0.49103788 -0.14060217 0.65796071
0.47234237 -0.13333958 0.62397486
-0.067782186 -0.075598791 0.35701993
-0.13945787 -0.16481748 0.77836049
-0.039421543 -0.08911138 0.420834
0.14684968 -0.14669982 0.69279891
0.15529317 -0.15057956 0.71112126
0.16121745 -0.13402434 0.63293815
0.16568117 -0.13113292 0.6192832
0.17751189 -0.13510017 0.63801891
0.17931034 -0.13542853 0.63956958
0.18123682 -0.13482778 0.63673228
0.22105418 -0.13100307 0.61867005
0.22266933 -0.13117556 0.61948466
0.23538813 -0.13623792 0.64339191
0.24362403 -0.11706768 0.55285919
0.25973898 -0.12128175 0.57276046
0.26543152 -0.12053136 0.56921667
0.2912555 -0.12374973 0.58441573
0.30638051 -0.12798062 0.60439634
0.31698406 -0.13130268 0.62008494
0.32414141 -0.13098159 0.61856842
0.32576242 -0.12747701 0.60201794
0.32999292 -0.12762024 0.60269445
0.33590472 -0.12741955 0.60174668
0.33832839 -0.12736362 0.60148245
-0.13862032 -0.16629075 0.79259604
-0.13403372 -0.16905241 0.80575913
-0.12318692 -0.17072728 0.81374222
-0.049053956 -0.087824531 0.41860041
-0.046880987 -0.094248064 0.44921705
-0.044926949 -0.09220814 0.43949404
0.13514146 -0.1285778 0.61284381
0.16283447 -0.13412562 0.63928658
0.16645372 -0.13596584 0.64805758
0.24925083 -0.12865603 0.61321676
0.25715008 -0.13203909 0.62934142
0.26457313 -0.13375169 0.63750422
0.24175794 -0.11510425 0.54862452
0.27426207 -0.12629202 0.60194904
0.28717053 -0.12631075 0.60203838
0.29454949 -0.12561631 0.5987286
0.30412439 -0.12126989 0.57801187
0.3409417 -0.12814271 0.61077005
0.46242112 -0.13074753 0.6231854
0.14284599 -0.14007959 0.67391026
0.15617439 -0.14721225 0.70822495
