# .PCD v0.7 - Point Cloud Data file format
VERSION 0.7
FIELDS x y z
SIZE 4 4 4
TYPE F F F
COUNT 1 1 1
WIDTH 1395
HEIGHT 1
VIEWPOINT 0 0 0 1 0 0 0
POINTS 1395
DATA ascii
-0.16687758 -0.22023012 1.003204
0.1944841 -0.1813108 0.82591653
0.20492671 -0.16815212 0.76597536
0.26419008 -0.17600387 0.80174208
0.24667071 -0.16119581 0.73428774
0.32011801 -0.16343841 0.74450302
0.32470995 -0.14680892 0.66875172
0.35475641 -0.15830308 0.72111058
0.37828577 -0.16451412 0.74940348
0.37208951 -0.15524605 0.70718491
0.33915329 -0.1234508 0.56234962
0.47135663 -0.15073836 0.68665123
0.51269019 -0.16144335 0.73541522
0.50368309 -0.15716161 0.71591079
0.48704946 -0.14969766 0.68191051
-0.1751406 -0.21018344 0.96599424
-0.15635325 -0.21855444 1.0044671
0.21635737 -0.18481824 0.84941697
0.21491794 -0.17908055 0.82304668
0.21486588 -0.16933495 0.77825618
0.24943899 -0.17253882 0.79298115
0.24879567 -0.16978653 0.78033185
0.27600801 -0.1721963 0.79140699
0.28569281 -0.16892134 0.77635527
0.28664339 -0.16850471 0.77444077
0.28547537 -0.16685461 0.76685691
0.32637596 -0.18138732 0.83364856
0.31812251 -0.17302205 0.79520214
0.30276936 -0.16379657 0.75280213
0.2795738 -0.14733306 0.67713654
0.28204876 -0.14787184 0.67961276
0.30527973 -0.14647308 0.67318416
0.35815847 -0.15840575 0.72802615
0.34086806 -0.14692846 0.67527699
0.38040388 -0.16327873 0.75042212
0.36255717 -0.1536746 0.70628202
0.3840481 -0.16077563 0.73891807
0.36197644 -0.14328635 0.6585381
0.48613352 -0.15456831 0.71038961
0.44792435 -0.13604584 0.62526095
0.55792141 -0.16036409 0.73702681
-0.18364729 -0.21587782 1.0011111
-0.16988681 -0.21205601 0.98338783
-0.14666016 -0.2119022 0.98267496
0.19582419 -0.17612897 0.81678033
0.20469801 -0.17777112 0.82439542
0.20672463 -0.17799895 0.82545197
0.21735968 -0.17803942 0.82563937
0.23670982 -0.17037439 0.79009402
0.24004875 -0.17034706 0.78996718
0.25383711 -0.1705358 0.79084229
0.24913763 -0.16094798 0.74637985
0.27238435 -0.17374086 0.80570555
0.31457317 -0.1761505 0.81687999
0.3126483 -0.16852519 0.78151822
0.28590584 -0.14855453 0.68890643
0.30973339 -0.14728196 0.68300509
0.31143594 -0.14535132 0.67405188
0.32556838 -0.1485121 0.6887095
0.37290967 -0.16708559 0.77484226
0.35950977 -0.15758252 0.73077285
0.3928594 -0.16503069 0.76531279
0.381194 -0.15622738 0.72448862
0.36363983 -0.12222251 0.5667944
0.4700132 -0.14903839 0.69115031
0.4398132 -0.13480172 0.62512922
0.4354102 -0.13264626 0.6151334
0.47894013 -0.1450316 0.67256927
0.59466779 -0.17182447 0.79681849
0.57078081 -0.16398326 0.76045561
-0.14281414 -0.20745565 0.97080791
0.20065318 -0.18895185 0.88421738
0.21143441 -0.16492936 0.77180207
0.21502401 -0.16643092 0.77882886
0.21596257 -0.16460875 0.77030194
0.28183126 -0.16956927 0.79351497
0.29779387 -0.16804925 0.78640199
0.30528855 -0.17131162 0.80166829
0.31097609 -0.17352924 0.81204629
0.31498688 -0.1747918 0.8179543
0.30973589 -0.16633865 0.77839708
0.31267482 -0.16525404 0.77332139
0.29968834 -0.14603865 0.68340135
0.36085916 -0.15881774 0.74320233
0.3862738 -0.16147341 0.75562978
0.35949612 -0.14367184 0.67232561
0.34625107 -0.135667 0.6348663
0.37500811 -0.14636093 0.68490958
0.51379925 -0.16044509 0.75081754
0.47119331 -0.14311747 0.66973138
0.59964162 -0.1716994 0.80348313
0.57681119 -0.16283055 0.76198053
-0.0827737 -0.092319116 0.4359827
-0.17030202 -0.20127046 0.95051193
-0.048140481 -0.10882031 0.51391065
0.17932869 -0.17914568 0.84602654
0.18963964 -0.18388352 0.86840129
0.19687422 -0.16366675 0.77292621
0.20232518 -0.16013582 0.75625122
0.21677251 -0.16498053 0.7791307
0.21896873 -0.16538152 0.78102434
0.2213213 -0.16464789 0.77755952
0.26994514 -0.15997726 0.75550246
0.27191752 -0.1601879 0.75649726
0.28744936 -0.16636992 0.7856921
0.29750681 -0.14295976 0.67513609
0.31718594 -0.14810586 0.69943893
0.32413751 -0.1471895 0.69511139
0.35567302 -0.15111968 0.71367204
0.37414324 -0.15628633 0.7380718
0.38709199 -0.16034314 0.75723028
0.39583236 -0.15995103 0.75537837
0.39781189 -0.15567133 0.73516738
0.40297806 -0.15584624 0.7359935
0.41019738 -0.15560116 0.7348361
0.41315711 -0.15553287 0.7345134
-0.16927923 -0.20306958 0.96789598
-0.16367821 -0.20644204 0.9839704
-0.15043239 -0.20848735 0.9937191
-0.059903309 -0.10724884 0.51118302
-0.05724974 -0.11509308 0.54857123
-0.054863527 -0.11260198 0.53669775
0.16503094 -0.15701559 0.74838758
0.19884886 -0.16379043 0.78067875
0.2032686 -0.16603765 0.7913897
0.30437809 -0.15711112 0.74884307
0.31402445 -0.16124241 0.76853406
0.32308924 -0.1633338 0.77850223
0.295228 -0.14056207 0.66996479
0.33492112 -0.15422426 0.73508322
0.35068458 -0.15424713 0.7351923
0.35969555 -0.15339911 0.73115051
0.37138814 -0.14809138 0.70585179
0.4163484 -0.15648428 0.74585521
0.56469566 -0.1596652 0.76101649
0.1744395 -0.17106125 0.82296026
0.19071577 -0.17977145 0.86486435
0.18863808 -0.16501753 0.79388452
0.22710477 -0.15869775 0.7634809
0.22590466 -0.15673295 0.7540282
0.23366372 -0.15983564 0.76895487
0.31008321 -0.16285443 0.78347826
0.33370394 -0.15368161 0.73934829
0.34309709 -0.15293783 0.73577023
0.32671589 -0.14301378 0.68802631
0.35931599 -0.15588059 0.74992752
0.38027668 -0.15659149 0.75334764
0.39669889 -0.15865156 0.76325846
0.40653151 -0.15493807 0.74539316
0.41018009 -0.15511286 0.74623418
0.42306238 -0.15574512 0.7492758
0.5886156 -0.1571891 0.75622261
-0.082686707 -0.0896817 0.43552458
-0.060854897 -0.11098151 0.53896356
-0.046119019 -0.10137903 0.49233073
0.17257683 -0.16433741 0.79807782
0.18087153 -0.16412497 0.79704618
0.18638773 -0.16755237 0.81369066
0.18808781 -0.16154397 0.7845118
0.2225755 -0.15747236 0.7647388
0.27089667 -0.15897164 0.77201974
0.26714045 -0.15488052 0.75215197
0.30921972 -0.16088188 0.78129649
0.30466384 -0.15598434 0.75751257
0.27100432 -0.1365737 0.66324782
0.32089561 -0.16004232 0.7772193
0.29838628 -0.13943264 0.67713189
0.30670035 -0.14262591 0.69263947
0.333498 -0.15287399 0.74240756
0.36422491 -0.15179229 0.73715436
0.36188519 -0.15016761 0.7292645
0.3668291 -0.15091908 0.73291397
0.3871538 -0.15595114 0.75735128
0.38335735 -0.15188175 0.73758888
0.36919254 -0.14390272 0.69884014
0.37578923 -0.14588374 0.70846057
0.36981463 -0.13538162 0.65745878
-0.081790224 -0.088872261 0.43570769
-0.079563394 -0.089510091 0.43883479
-0.047702923 -0.10629606 0.52113014
0.21823893 -0.15407777 0.75538623
0.26763475 -0.15945956 0.78177094
0.26991922 -0.15408669 0.75542986
0.30862588 -0.16256845 0.79701281
0.31024313 -0.15989015 0.78388202
0.31796545 -0.15708354 0.77012241
0.32141256 -0.15796876 0.77446222
0.32708412 -0.15911728 0.78009295
0.29302335 -0.13831715 0.67811775
0.29630888 -0.13849801 0.67900431
0.36446017 -0.14852862 0.72818077
0.37080938 -0.14374977 0.70475185
0.39966881 -0.15246028 0.74745607
0.38690263 -0.14700282 0.72070026
0.3747834 -0.13747224 0.67397547
0.43282592 -0.15065566 0.73860884
0.43338096 -0.14867972 0.72892129
0.50035262 -0.13636099 0.66852748
0.56874847 -0.15238979 0.74711061
-0.07996957 -0.088071197 0.43593591
-0.04924278 -0.10156671 0.50273615
0.16954044 -0.15237287 0.75421715
0.17722027 -0.15777493 0.78095603
0.21542023 -0.16804239 0.83177817
0.20768301 -0.15809277 0.78252947
0.21034198 -0.15633968 0.77385199
0.23982908 -0.16288641 0.80625725
0.2311698 -0.15369225 0.76074779
0.24267603 -0.15480879 0.76627433
0.24391292 -0.15352562 0.75992274
0.26696438 -0.137762 0.68189597
0.32423711 -0.1578379 0.78126788
0.34555012 -0.14314756 0.70855355
0.38508046 -0.15346998 0.75964773
0.37505668 -0.14822516 0.7336868
0.37287891 -0.14614242 0.72337759
0.39896703 -0.14895555 0.73730206
0.43927622 -0.14873096 0.73619044
0.4869495 -0.13296203 0.6581372
0.56692934 -0.15087804 0.74681771
0.55102056 -0.14501104 0.71777737
-0.078979209 -0.087158903 0.43561256
-0.058750138 -0.10611676 0.53036225
-0.055970475 -0.10730744 0.53631312
-0.048569962 -0.10142816 0.50692892
0.1840301 -0.1495811 0.74759316
0.19263513 -0.15522754 0.77581334
0.20084609 -0.15910488 0.79519212
0.21138589 -0.16065675 0.80294836
0.24262871 -0.15328902 0.76612496
0.24255387 -0.15020075 0.75068998
0.2518416 -0.15391582 0.76925766
0.2546249 -0.15460747 0.7727145
0.26492327 -0.15292534 0.76430738
0.30129772 -0.15654664 0.78240633
0.28802812 -0.14720112 0.73569822
0.32262224 -0.15634558 0.7814014
0.29329669 -0.12701155 0.63479245
0.32024187 -0.13740882 0.68675709
0.32477599 -0.13871849 0.69330287
0.36633307 -0.15095825 0.75447607
0.37201893 -0.15196341 0.75949967
0.38817179 -0.15256989 0.7625308
0.37604421 -0.14015327 0.70047367
0.4107585 -0.15069163 0.75314355
0.40717286 -0.1482145 0.74076307
0.43907386 -0.1515753 0.7575599
0.55939317 -0.1482746 0.74106336
-0.05969353 -0.10280579 0.51885629
0.23282178 -0.1573447 0.79411173
0.25795031 -0.15410504 0.77776146
0.28829354 -0.15891886 0.80205655
0.28729612 -0.15743294 0.79455709
0.30556637 -0.14151309 0.71421051
0.30211198 -0.13852921 0.6991508
0.33011109 -0.13774171 0.69517636
0.33766067 -0.13963477 0.70473051
0.36989516 -0.15028337 0.7584734
0.36988825 -0.13706493 0.69176078
0.4241485 -0.14997759 0.75693023
0.42471933 -0.14573248 0.73550534
0.43222767 -0.14776187 0.74574769
0.40198952 -0.135427 0.68349409
-0.052065775 -0.099927843 0.50932932
-0.04873161 -0.099787883 0.50861615
0.1461204 -0.14874753 0.75816214
0.16920276 -0.15820879 0.80638576
0.1725321 -0.15500617 0.79006207
0.23861836 -0.1551553 0.79082239
0.24602015 -0.15663946 0.79838693
0.25529432 -0.14539957 0.74109769
0.25990778 -0.14711428 0.74983752
0.30032146 -0.15648085 0.79757845
0.31992447 -0.16299406 0.83077645
0.32314253 -0.15043905 0.76678383
0.29588395 -0.13237774 0.67472589
0.37373674 -0.14969805 0.76300657
0.3760705 -0.14616811 0.74501491
0.42374873 -0.14291468 0.72843242
0.47902709 -0.14846635 0.75672901
0.40750757 -0.12338395 0.62888455
0.5914526 -0.15416196 0.78575921
0.58878094 -0.15089479 0.76910651
-0.058217451 -0.10015652 0.51560491
0.1550498 -0.14652371 0.75430274
0.1836075 -0.16658257 0.8575654
0.25393331 -0.14683533 0.7559067
0.26398236 -0.14793988 0.76159298
0.30851448 -0.15737012 0.81013989
0.30713105 -0.13738719 0.70726788
0.29228944 -0.12461473 0.64151543
0.34028643 -0.13920079 0.71660423
0.40391004 -0.14557078 0.74939704
0.40285903 -0.14461851 0.7444948
0.38694078 -0.12687662 0.65315962
0.40879095 -0.12672588 0.65238345
0.40129989 -0.12356072 0.6360895
0.40978873 -0.12203991 0.62826037
-0.084545925 -0.082839534 0.43076891
-0.058021948 -0.10072785 0.52378869
-0.052134737 -0.10017137 0.520895
0.21332683 -0.17265011 0.89778721
0.2121246 -0.1455013 0.75661218
0.26491445 -0.14607543 0.7595979
0.31271446 -0.15880722 0.82580376
0.36576164 -0.14680278 0.76338029
0.37956983 -0.14837365 0.77154863
0.35985059 -0.1382626 0.71897089
0.35966593 -0.13362658 0.69486344
0.40376759 -0.13298815 0.69154358
0.39023119 -0.12759551 0.6635015
0.39653289 -0.12734213 0.662184
0.40258408 -0.12526163 0.65136528
0.41390628 -0.12406508 0.64514315
0.42329234 -0.12439208 0.64684355
0.45394081 -0.12185669 0.63365942
0.5644778 -0.14140417 0.73530722
-0.080721632 -0.08280129 0.4349677
-0.058203235 -0.098127611 0.51547909
0.14636867 -0.15128121 0.79470301
0.236524 -0.15028572 0.78947353
0.2495241 -0.13454887 0.70680559
0.24832891 -0.13309857 0.69918692
0.30951858 -0.15472174 0.81277657
0.31264991 -0.15541473 0.81641698
0.30762649 -0.12852798 0.67517686
0.37807345 -0.14257778 0.74898279
0.39376009 -0.1251732 0.65755367
0.47956657 -0.14421463 0.75758111
0.47072244 -0.12397432 0.65125585
0.53762567 -0.13257769 0.69645059
-0.080770001 -0.082004689 0.43522847
0.14431198 -0.15113983 0.80215359
0.15574446 -0.1557135 0.82642746
0.17567964 -0.14725365 0.78152812
0.17441702 -0.14346708 0.76143146
0.22049327 -0.14379826 0.7631892
0.22918923 -0.14517355 0.77048826
0.22676505 -0.13770142 0.73083091
0.30083197 -0.14557534 0.77262056
0.2970705 -0.12826517 0.68074942
0.31982094 -0.13674855 0.72577369
0.325113 -0.13834029 0.7342217
0.31713617 -0.13053551 0.69279897
0.36913693 -0.14451692 0.7670033
0.37638187 -0.13989779 0.74248803
0.35599166 -0.13066611 0.69349217
0.37441045 -0.13193344 0.7002182
0.39909464 -0.13841841 0.73463631
0.48415017 -0.1421856 0.75463033
0.47102827 -0.13133162 0.69702435
0.46740264 -0.12256753 0.65050989
-0.082655028 -0.080278799 0.43051106
0.14823031 -0.15183765 0.81425953
0.16463448 -0.16290322 0.87360072
0.17368676 -0.15435427 0.82775569
0.17527984 -0.15115114 0.81057811
0.21592213 -0.14252719 0.76433051
0.23024495 -0.14433725 0.77403736
0.22775982 -0.13782766 0.73912835
0.25530088 -0.14081956 0.75517309
0.25741005 -0.12604529 0.67594278
0.29247546 -0.14084414 0.75530481
0.2966494 -0.12676163 0.67978454
0.32131648 -0.13089132 0.701931
0.35149002 -0.13865115 0.74354446
0.32860726 -0.12732203 0.68278968
0.36076385 -0.1344091 0.72079563
0.35149843 -0.12821938 0.68760192
0.38958478 -0.13807151 0.74043596
0.41520679 -0.13164398 0.70596707
0.48295248 -0.13990416 0.75026405
0.48869634 -0.14063418 0.75417876
0.40976447 -0.11600642 0.62210757
0.41646382 -0.11714277 0.62820148
0.51665974 -0.13059002 0.700315
0.60194582 -0.14786306 0.79294503
0.58967882 -0.14444309 0.77460468
0.53710049 -0.12902808 0.69193864
-0.17185022 -0.095212713 0.51597726
-0.057792917 -0.096272595 0.52172089
-0.05148606 -0.09699557 0.52563876
-0.046912894 -0.094570935 0.51249921
0.14463194 -0.15013243 0.81359839
0.1740108 -0.14149916 0.7668128
0.22796263 -0.13557169 0.73469067
0.2604872 -0.13615647 0.73785973
0.28080672 -0.13761282 0.74575198
0.28299105 -0.13712656 0.74311674
0.29448944 -0.13093975 0.70958948
0.32885897 -0.1390599 0.75359416
0.31776434 -0.13371363 0.72462142
0.36155367 -0.13986905 0.75797892
0.36791354 -0.14169449 0.76787138
0.36327922 -0.13508877 0.73207378
0.37181073 -0.13421473 0.72733712
0.3841491 -0.11508977 0.62369496
0.47846562 -0.13761613 0.74576998
0.47714227 -0.1221758 0.66209567
0.47959274 -0.12244015 0.66352832
0.55859804 -0.13502397 0.73172259
0.54296744 -0.13087933 0.70926178
0.54220736 -0.13033226 0.70629704
-0.17578457 -0.095751859 0.52442455
-0.061341271 -0.092210919 0.50503111
-0.059888139 -0.093310468 0.51105338
0.18418695 -0.1570724 0.86027193
0.16906056 -0.14135067 0.77416527
0.17626797 -0.14050104 0.76951182
0.21294163 -0.14417344 0.78962541
0.22962175 -0.13605669 0.74517071
0.24187212 -0.13578096 0.74366057
0.25821257 -0.13518223 0.74038124
0.29353189 -0.136894 0.74975634
0.39240539 -0.14193676 0.77737534
0.39432448 -0.14084183 0.77137852
0.38639891 -0.12127767 0.66422713
0.36408788 -0.10830604 0.59318262
0.37548089 -0.1109226 0.60751343
0.50623548 -0.1363472 0.74676168
0.50820154 -0.13559419 0.74263752
0.50540268 -0.12729344 0.69717515
0.53005952 -0.12399834 0.67912805
-0.061155185 -0.097838983 0.54162323
-0.052646831 -0.095018916 0.52601165
0.16945653 -0.15708493 0.86960089
0.15736137 -0.14429016 0.79877055
0.20055754 -0.14846274 0.82186937
0.21115483 -0.14257121 0.78925478
0.20235853 -0.13343397 0.73867214
0.23694782 -0.11979194 0.66315186
0.25253445 -0.12184124 0.67449665
0.27178937 -0.12820378 0.70971847
0.27983308 -0.13126542 0.7266674
0.28995937 -0.13452223 0.74469686
0.29994118 -0.12538737 0.6941272
0.32998979 -0.13659751 0.75618529
0.31561154 -0.12571973 0.69596732
0.36978734 -0.13941497 0.77178228
0.45782578 -0.12933566 0.71598458
0.45620197 -0.12844759 0.71106827
0.48675805 -0.13480544 0.74626446
0.56338227 -0.14038546 0.7771548
0.57040268 -0.13535079 0.74928355
-0.16139458 -0.087719098 0.49088478
0.13237612 -0.14341259 0.80255079
0.14566964 -0.15003765 0.83962512
0.15493815 -0.15389636 0.86121917
0.16400893 -0.14257938 0.79788828
0.1693535 -0.14134669 0.79098976
0.174417 -0.13235962 0.74069738
0.21532528 -0.14268239 0.79846454
0.21876116 -0.14050475 0.78627837
0.23167737 -0.14018513 0.78448975
0.2539618 -0.14830258 0.82991588
0.23922904 -0.131437 0.73553419
0.24122785 -0.12591556 0.70463562
0.29082167 -0.13420674 0.7510339
0.32343102 -0.13508809 0.75596619
0.32860178 -0.13134246 0.73500526
0.3083145 -0.12264726 0.68634605
0.37180364 -0.13928768 0.77946758
0.36608326 -0.12959562 0.72522974
0.36784315 -0.12492889 0.69911432
0.37754583 -0.12517336 0.70048225
0.36426613 -0.10754927 0.60185623
0.47105819 -0.1299046 0.72695887
0.59382415 -0.140975 0.78890991
0.52005869 -0.12005401 0.67183387
-0.15807669 -0.085537054 0.48393929
-0.08428891 -0.075907588 0.42945921
-0.048963889 -0.09032727 0.51104063
0.16032939 -0.14703739 0.83188713
0.17651524 -0.14286865 0.80830181
0.22744827 -0.15522696 0.87822092
0.20479311 -0.13862145 0.78427267
0.21355914 -0.14222677 0.80467021
0.20446764 -0.13090102 0.74059308
0.36273307 -0.12755251 0.72164834
0.41487592 -0.12468138 0.70540452
0.41320449 -0.11383679 0.64404947
0.49060196 -0.12554035 0.71026421
0.58006757 -0.13738111 0.77725518
0.58212078 -0.13708219 0.77556396
0.54470396 -0.12647028 0.71552551
-0.079777822 -0.076022044 0.43489057
0.18060817 -0.13782844 0.7884593
0.17576717 -0.13289416 0.76023221
0.20255236 -0.14768478 0.84484315
0.22616629 -0.15392442 0.88053775
0.20527236 -0.12702063 0.72663224
0.23917992 -0.133827 0.76556861
0.24192746 -0.12126148 0.6936866
0.25923902 -0.12314629 0.70446885
0.28918344 -0.13349399 0.76366389
0.32366568 -0.13290827 0.76031291
0.34839892 -0.13181382 0.75405216
0.36135852 -0.13183801 0.75419044
0.37688082 -0.13162938 0.75299704
0.39683205 -0.13570011 0.77628386
0.40286946 -0.13384724 0.7656846
0.4884147 -0.11953709 0.68382192
0.54860997 -0.12597607 0.72065663
-0.15685891 -0.083010726 0.4802112
-0.083502933 -0.074355096 0.43013889
-0.081317559 -0.074882455 0.43318969
-0.062182531 -0.086968109 0.50310427
-0.05646275 -0.088110551 0.50971317
-0.046665654 -0.088125266 0.50979835
0.13191317 -0.13824612 0.79974389
0.1538174 -0.1513932 0.8757987
0.14480788 -0.12988093 0.75135207
0.21701793 -0.14728102 0.85201025
0.2235695 -0.13998115 0.80978107
0.20916949 -0.12799251 0.74042773
0.22971828 -0.13349631 0.77226675
0.22323175 -0.11786975 0.68186808
0.22653867 -0.11883999 0.68748081
0.28223026 -0.12883514 0.74530232
0.29408532 -0.13349339 0.77224982
0.29276586 -0.11770062 0.68088973
0.34725636 -0.13113347 0.75859797
0.36121398 -0.13090339 0.75726676
0.37751937 -0.13207787 0.76406121
0.37743437 -0.13091557 0.75733709
0.48261523 -0.11715449 0.6777302
0.57370788 -0.13175356 0.76218498
0.57281083 -0.13117506 0.75883842
0.56276935 -0.12814984 0.74133766
0.5330013 -0.12001962 0.69430494
-0.16482104 -0.08458291 0.49487227
-0.15573816 -0.081490614 0.47678012
-0.058172628 -0.086422741 0.50563669
-0.056796953 -0.089359306 0.52281785
-0.056447908 -0.090592496 0.53003287
-0.054712877 -0.093433328 0.54665387
0.12224126 -0.13734737 0.80358315
0.14258435 -0.13387129 0.78324556
0.2113017 -0.13830703 0.8091979
0.23241983 -0.14388573 0.84183764
0.24160017 -0.13217404 0.77331543
0.22704749 -0.12253598 0.71692574
0.24506007 -0.12311733 0.72032702
0.27097446 -0.12885106 0.75387335
0.2764383 -0.12990427 0.76003599
0.31654227 -0.14207104 0.83122039
0.30333012 -0.12890625 0.75419652
0.3071987 -0.12986016 0.75977755
0.312711 -0.13012671 0.76133716
0.31259334 -0.12807831 0.74935257
0.31238097 -0.12175311 0.71234524
0.34213251 -0.13017663 0.76162922
0.3480193 -0.13055295 0.76383078
0.41058636 -0.13502203 0.78997827
0.40657943 -0.13315673 0.77906501
0.43936366 -0.12407593 0.72593558
0.4779098 -0.1335465 0.78134549
0.48744345 -0.12061583 0.70569134
0.51285869 -0.11745518 0.68719935
0.5390532 -0.12068913 0.70612025
-0.066759184 -0.088217527 0.52207649
-0.061787531 -0.084471732 0.49990863
-0.057070926 -0.092404917 0.54685766
0.17006336 -0.14746639 0.87271476
0.17572878 -0.14008695 0.82904291
0.19892992 -0.15699926 0.92913079
0.2013167 -0.13583139 0.80385828
0.23347996 -0.14289775 0.84567738
0.21591879 -0.12177932 0.72069716
0.24144651 -0.12970005 0.7675724
0.25772488 -0.12115663 0.71701205
0.2837913 -0.13107225 0.77569342
0.33712298 -0.12990174 0.76876616
0.39924103 -0.13141885 0.77774453
0.34876728 -0.11155301 0.66017747
0.35520893 -0.11225093 0.66430771
0.4019289 -0.11301139 0.6688081
0.57696456 -0.13176571 0.77979708
0.57922411 -0.13039826 0.77170467
0.53675574 -0.11814608 0.69919538
-0.15783136 -0.080706917 0.48318815
-0.078680202 -0.07248491 0.43396342
-0.061836764 -0.083566181 0.50030667
-0.056585833 -0.087001659 0.52087456
0.14760463 -0.13543174 0.81082284
0.14738747 -0.1306313 0.78208315
0.20602502 -0.16234858 0.97197258
0.20438354 -0.14903295 0.89225256
0.23965378 -0.12812626 0.76708543
0.31668347 -0.12945524 0.77504182
0.34731388 -0.13906667 0.83258498
0.33951771 -0.12564483 0.75222933
0.35615641 -0.1252766 0.75002468
0.37173581 -0.12512469 0.74911511
0.40443277 -0.12944022 0.77495193
0.49628413 -0.11605911 0.69483984
0.54664326 -0.12412156 0.74310946
0.54045147 -0.11891504 0.71193826
0.5399738 -0.1171606 0.70143449
-0.16637273 -0.082465477 0.49953127
-0.16031806 -0.080497511 0.48761058
-0.080162272 -0.071309358 0.43195361
-0.062937096 -0.087074697 0.52745157
-0.057124987 -0.083521731 0.50592953
-0.056665316 -0.084448211 0.51154178
0.18061452 -0.15470821 0.93713868
0.19383483 -0.15897994 0.96301472
0.20315038 -0.15821993 0.95841098
0.23572703 -0.15278053 0.92546201
0.23748787 -0.14311373 0.86690557
0.23809905 -0.14237121 0.8624078
0.24415292 -0.14160609 0.85777342
0.22878943 -0.1269747 0.76914406
0.26248211 -0.12200431 0.7390362
0.26874113 -0.12056046 0.73029017
0.30537367 -0.11842316 0.71734369
0.29777265 -0.113762 0.68910885
0.30144811 -0.11403804 0.69078112
0.35074151 -0.12708388 0.76980567
0.39710611 -0.12824184 0.77681983
0.39842641 -0.12813251 0.77615762
0.3989498 -0.126718 0.76758921
0.49640286 -0.11439326 0.69293249
0.49552304 -0.1138508 0.6896466
0.53756064 -0.11496011 0.69636631
-0.16107689 -0.080448933 0.49312425
-0.06503205 -0.087348796 0.53541785
-0.05764325 -0.081739575 0.50103533
-0.056589797 -0.083342373 0.51085985
0.12594707 -0.13507199 0.82794428
0.21174146 -0.15665033 0.96021247
0.1960168 -0.14225926 0.87199998
0.23219429 -0.15125689 0.92715228
0.23017283 -0.13393697 0.82098711
0.23427828 -0.12577829 0.77097726
0.23337047 -0.11629323 0.7128371
0.24747042 -0.1225196 0.75100279
0.22681336 -0.10945281 0.67090774
0.25598109 -0.11348362 0.69561529
0.29717213 -0.12589508 0.77169335
0.30030221 -0.12582439 0.77126002
0.3049888 -0.11806653 0.72370684
0.34404582 -0.12614849 0.77324653
0.38347954 -0.12607253 0.77278101
0.402915 -0.12647016 0.77521825
0.55015898 -0.12308449 0.75446522
0.57952619 -0.12815213 0.7855283
0.56721187 -0.12506673 0.76661587
-0.06363894 -0.082998402 0.51488787
-0.058704361 -0.094547547 0.58653408
-0.057823971 -0.095161796 0.59034461
-0.045457765 -0.080050893 0.49660289
0.14953135 -0.14066604 0.87263417
0.20056941 -0.15408385 0.95587289
0.21315847 -0.15734424 0.97609901
0.218356 -0.12749033 0.79089749
0.29982805 -0.11586057 0.71875143
0.2927078 -0.10919288 0.67738771
0.34032345 -0.12097196 0.75046039
0.36901778 -0.12815177 0.79500091
0.35971057 -0.11994868 0.74411225
0.41805732 -0.1312788 0.81439972
0.39580053 -0.12028315 0.74618721
0.36936915 -0.11180022 0.69356251
0.43669337 -0.12610465 0.78230155
0.52991956 -0.11445954 0.71005988
-0.16364358 -0.078752123 0.49451053
-0.065157488 -0.079813287 0.50117391
-0.057121977 -0.09287262 0.58317775
-0.045286462 -0.078787327 0.49473149
0.1958469 -0.13874793 0.87124372
0.22263961 -0.13804138 0.8668071
0.23948924 -0.13500711 0.84775412
0.2763024 -0.1195729 0.75083745
0.29435509 -0.12520379 0.78619576
0.32670796 -0.1336253 0.83907712
0.32938552 -0.12771009 0.80193353
0.31197673 -0.11670906 0.73285472
0.34225941 -0.11962888 0.75118923
0.37600964 -0.12900484 0.81006396
0.3555997 -0.11766787 0.73887527
0.501589 -0.11150426 0.70017195
0.5354073 -0.10984571 0.68975735
-0.085014865 -0.06888961 0.43792719
-0.083049938 -0.06804657 0.43256801
-0.044849321 -0.077074155 0.48995578
0.14983554 -0.13420409 0.85312748
0.19704421 -0.12814447 0.81460667
0.20357241 -0.12678844 0.80598652
0.21458091 -0.12718698 0.80851996
0.21565758 -0.10569426 0.67189217
0.22200356 -0.10737441 0.68257284
0.33770728 -0.1280058 0.81372523
0.28518546 -0.10754389 0.6836499
0.29322195 -0.10945287 0.69578528
0.39557964 -0.1298759 0.8256135
0.36050147 -0.11731241 0.74574816
0.38084888 -0.12178007 0.77414846
0.39888352 -0.12072816 0.76746154
0.50737244 -0.11108145 0.70613813
0.51805127 -0.10795996 0.68629503
0.52366996 -0.10882272 0.69177961
-0.082814381 -0.067014888 0.43134111
-0.080522582 -0.066644117 0.42895466
-0.065421686 -0.075691387 0.48718739
0.16383553 -0.12383202 0.7970444
0.18642659 -0.13263239 0.85368776
0.17908768 -0.12377679 0.79668856
0.2183945 -0.14675762 0.94460475
0.21735297 -0.14211631 0.91473103
0.22721551 -0.12591308 0.81043899
0.23408811 -0.12495846 0.80429459
0.24388851 -0.12296588 0.79146957
0.23951836 -0.10802483 0.69530129
0.30417722 -0.12550592 0.80781829
0.31957471 -0.1303789 0.83918321
0.33164477 -0.12043267 0.77516448
0.33686149 -0.12111694 0.77956867
0.38300854 -0.12819743 0.82514203
0.39539289 -0.12221313 0.78662443
0.39709002 -0.1201825 0.77355409
0.36482811 -0.10729109 0.6905787
0.45199174 -0.12160878 0.78273439
0.45377254 -0.12163766 0.78292024
0.51383507 -0.1114374 0.71726632
0.51206565 -0.11072327 0.71266985
0.51933521 -0.10780559 0.69389009
0.5265615 -0.10807116 0.69559956
-0.17787306 -0.080897138 0.52729297
-0.16118814 -0.075707212 0.49346471
-0.08238171 -0.065830469 0.42908746
-0.0580291 -0.080369413 0.5238533
-0.060925439 -0.091437839 0.59599799
0.12234037 -0.13270852 0.86500311
0.15867987 -0.12224768 0.79681838
0.20525314 -0.12573914 0.81957614
0.21677332 -0.12632766 0.82341218
0.25265306 -0.11612517 0.75691164
0.24345542 -0.10709735 0.69806778
0.307859 -0.11151023 0.72683132
0.33104342 -0.11870986 0.77375877
0.38868207 -0.12121249 0.79007113
0.40301067 -0.12044798 0.78508806
0.41223568 -0.12168509 0.79315162
0.45084441 -0.12296808 0.80151415
0.45500767 -0.1208882 0.78795719
0.51547009 -0.11039295 0.71954846
0.57804775 -0.12090871 0.78809094
0.51627028 -0.10674267 0.69575584
-0.21453895 -0.094539329 0.62412333
-0.17642097 -0.079725035 0.52632338
-0.16065554 -0.074500792 0.49183422
-0.056874946 -0.077772632 0.51343417
0.1255922 -0.12684202 0.83737707
0.12362376 -0.1213942 0.80141187
0.1433998 -0.12836352 0.84742165
0.187685 -0.14124492 0.93246126
0.19687726 -0.13266635 0.87582767
0.20931391 -0.1310764 0.86533141
0.23641171 -0.11621273 0.76720548
0.24487589 -0.11184031 0.7383399
0.30901122 -0.12291382 0.81144416
0.36114347 -0.12597434 0.83164895
0.37261349 -0.10683791 0.70531535
0.47602147 -0.10636483 0.70219219
0.4700011 -0.10468955 0.69113243
-0.05296497 -0.08652088 0.57861489
0.19075339 -0.1496574 1.0008446
0.17050608 -0.11790553 0.78850162
0.17096175 -0.11706354 0.78287089
0.25432789 -0.13774648 0.92118955
0.25731766 -0.13620248 0.91086411
0.24657144 -0.12219383 0.81718004
0.23332165 -0.11401237 0.76246631
0.23964842 -0.11549068 0.77235234
0.25827312 -0.11423648 0.76396501
0.23288368 -0.10046586 0.67187262
0.26741225 -0.1086611 0.72667909
0.3335771 -0.12881325 0.86144793
0.38064682 -0.11879452 0.79444706
0.37739289 -0.11372068 0.76051533
0.39791608 -0.11591101 0.77516341
0.53114301 -0.10891655 0.72838748
0.49944121 -0.10093653 0.67502034
0.5605318 -0.11072402 0.74047494
-0.15690856 -0.068217039 0.4622165
-0.069259211 -0.077351242 0.52410704
-0.062052354 -0.075399965 0.51088572
-0.055817083 -0.075829722 0.5137977
0.12384783 -0.12363106 0.83768404
0.13006468 -0.12618852 0.85501254
0.18017431 -0.14607175 0.98973489
0.16999322 -0.11488682 0.77843583
0.19325177 -0.11791122 0.79892838
0.22661115 -0.11006221 0.7457459
0.2401437 -0.1068634 0.72407186
0.24265836 -0.10729099 0.72696877
0.22517492 -0.097684257 0.66187692
0.38327104 -0.11111858 0.75290358
0.39755988 -0.11382748 0.77125812
0.44212556 -0.1151303 0.78008556
0.45079863 -0.11436966 0.77493167
0.49099094 -0.10299644 0.69787061
0.57793331 -0.11331689 0.76779842
0.57726276 -0.11286493 0.76473618
-0.15761946 -0.068051793 0.46725267
-0.078448728 -0.063017517 0.43268669
0.13036214 -0.11510711 0.79034054
0.15768081 -0.11531989 0.79180133
0.17046072 -0.11368504 0.78057659
0.18657883 -0.11436106 0.78521824
0.200819 -0.11985511 0.82294083
0.24440683 -0.13974954 0.9595387
0.25342762 -0.14134927 0.97052264
0.24874745 -0.13541374 0.92976856
0.24181576 -0.11589962 0.79578209
0.24568222 -0.10387139 0.71319461
0.26327741 -0.10927634 0.75030577
0.2615822 -0.10293006 0.70673144
0.3765747 -0.11815695 0.81128132
0.37531608 -0.11408481 0.78332138
0.37538362 -0.1130963 0.77653408
0.37690884 -0.11062126 0.7595402
0.42312473 -0.11808225 0.81076837
0.50141931 -0.10224526 0.70202947
-0.16064753 -0.070212699 0.48861265
-0.059217736 -0.072615325 0.50533265
0.18781407 -0.12732482 0.88605809
0.20761128 -0.1266934 0.88166392
0.24741162 -0.13615163 0.94748414
0.24495836 -0.12849125 0.89417481
0.26591861 -0.13840593 0.96317196
0.28292477 -0.14072096 0.9792819
0.27580017 -0.13228413 0.9205699
0.25307781 -0.10689617 0.7438941
0.26770157 -0.10702174 0.74476814
0.26699418 -0.10548447 0.73407018
0.32616848 -0.10433789 0.72609127
0.36926371 -0.10833036 0.75387478
0.36867338 -0.10722142 0.74615765
0.3704561 -0.10457339 0.72773004
0.49386126 -0.10056341 0.69982457
0.50266039 -0.10052831 0.69958019
0.5244059 -0.10334026 0.71914852
0.5566591 -0.10448962 0.72714686
-0.14494418 -0.060908403 0.42967761
-0.079549327 -0.061470825 0.43364507
-0.071440563 -0.074232742 0.52367401
-0.059632108 -0.070841938 0.49975359
0.13548826 -0.12280434 0.8663218
0.16089977 -0.12986407 0.91612434
0.16516994 -0.11757179 0.82940865
0.17947756 -0.11765415 0.82998979
0.24437769 -0.1337572 0.9435885
0.26685268 -0.1046168 0.73801792
0.38961172 -0.11736228 0.82793069
0.34533697 -0.10171556 0.71755111
0.36469793 -0.10198318 0.71943903
0.36791629 -0.10075898 0.71080291
0.4432196 -0.10961359 0.77326775
0.49776357 -0.098789766 0.6969111
0.51388037 -0.10108098 0.71307445
0.57147843 -0.10731798 0.75707316
0.56843895 -0.10614608 0.74880612
0.56310469 -0.10456122 0.73762596
0.55655611 -0.10248443 0.72297502
0.1715246 -0.13020255 0.93128598
0.15894784 -0.1192716 0.85310125
0.15855308 -0.11131371 0.79618144
0.16266027 -0.11179748 0.79964185
0.19168229 -0.12903291 0.92291963
0.2331479 -0.13595866 0.97245705
0.27442956 -0.1337917 0.95695734
0.29699832 -0.13761491 0.98430336
0.24066643 -0.10211048 0.73035467
0.24711244 -0.097274065 0.6957618
0.2513718 -0.096624844 0.69111824
0.24613334 -0.094058521 0.67276227
0.25923961 -0.09625534 0.68847537
0.35386741 -0.11799508 0.84397089
0.35010839 -0.11216743 0.80228782
0.36278021 -0.11566075 0.82727408
0.30960399 -0.096819669 0.6925118
0.38487792 -0.10659951 0.76246297
0.52274984 -0.10515781 0.75215113
0.51760513 -0.10223648 0.73125589
0.56282282 -0.10278767 0.73519814
0.56257576 -0.1024565 0.73282957
-0.084311411 -0.059875336 0.43430364
0.096310794 -0.10498685 0.7615186
0.10833707 -0.11423545 0.82860303
0.14068346 -0.1223432 0.88741243
0.21450527 -0.13282032 0.96340787
0.22278427 -0.13284561 0.96359134
0.26316136 -0.13781233 0.99961746
0.2275389 -0.11189029 0.81159258
0.26829052 -0.1289797 0.93555021
0.23338975 -0.10895315 0.79028797
0.28023309 -0.10438062 0.75712144
0.32381082 -0.10701684 0.77624321
0.33915555 -0.10928839 0.79271984
0.36106735 -0.11351378 0.82336819
0.52371633 -0.10356861 0.75123143
0.55236787 -0.10535848 0.76421428
0.57160205 -0.10499117 0.76154995
0.57209122 -0.10419091 0.75574541
0.56601584 -0.10250559 0.74352086
-0.16040914 -0.063427739 0.46665233
-0.15646778 -0.065107919 0.4790138
-0.082237229 -0.05887505 0.43315715
0.086108014 -0.099250413 0.73020756
0.14840199 -0.11920007 0.87698233
0.14319593 -0.10948694 0.80552042
0.1742989 -0.1301387 0.95745993
0.16711284 -0.11284874 0.83025396
0.17198594 -0.11255395 0.82808495
0.23204438 -0.1315515 0.96785438
0.25128144 -0.10364887 0.76256824
0.26768702 -0.10900182 0.80195105
0.2643894 -0.095437028 0.70215178
0.26129127 -0.093786329 0.69000733
0.34620732 -0.10678656 0.78565288
0.35029262 -0.09636198 0.70895696
0.35754454 -0.097096853 0.71436346
0.38210434 -0.10332522 0.76018727
0.38669729 -0.10325009 0.75963438
0.52388322 -0.1012096 0.74462199
0.52657014 -0.10142062 0.74617457
0.58341795 -0.10748662 0.79080343
0.55681956 -0.098862827 0.7273562
0.55118507 -0.09625008 0.7081337
-0.16483985 -0.063850299 0.47657853
-0.16098408 -0.062744498 0.4683249
-0.16095917 -0.064334869 0.48019546
0.068413615 -0.1016875 0.75899529
0.14013107 -0.1109466 0.82810533
0.14980821 -0.1142781 0.85297167
0.1647696 -0.12417988 0.92687845
0.17059265 -0.12554945 0.93710089
0.1866522 -0.12975165 0.96846592
0.20097931 -0.12576406 0.93870294
0.22416301 -0.13234438 0.987818
0.2289087 -0.13264754 0.99008119
0.19739668 -0.10560092 0.78820539
0.24917014 -0.12680486 0.94647133
0.23261012 -0.11287874 0.84252691
0.23703043 -0.11327004 0.8454473
0.23103602 -0.10793687 0.8056407
0.27075905 -0.12555915 0.93717325
0.28739917 -0.12944511 0.9661783
0.24438737 -0.10774984 0.80424476
0.29346961 -0.12671629 0.94581044
0.25916767 -0.1001745 0.74770248
0.25906897 -0.097725935 0.72942638
0.3578009 -0.095776521 0.7148757
0.52122319 -0.10016818 0.74765527
0.54800868 -0.094847396 0.70794082
-0.15910797 -0.061882846 0.46869546
-0.17085342 -0.067298546 0.50971341
-0.082196072 -0.057162035 0.4329403
-0.058884516 -0.066344701 0.50248915
-0.048614249 -0.079388835 0.60128415
0.066996351 -0.095862664 0.72605562
0.089838505 -0.10244463 0.7759068
0.090967849 -0.10185218 0.77141976
0.086965546 -0.095637642 0.72435129
0.14045802 -0.10689141 0.80958593
0.16443597 -0.12361617 0.93625844
0.17124857 -0.12276182 0.92978728
0.19687651 -0.10379415 0.78612792
0.25539297 -0.13350497 1.0111551
0.24156581 -0.12115093 0.91758645
0.23906304 -0.11432659 0.86589968
0.2285759 -0.10523779 0.79706204
0.28271759 -0.12548855 0.95043933
0.28678668 -0.12203361 0.92427194
0.26604295 -0.10456346 0.79195464
0.31244463 -0.10043535 0.76068866
0.34333462 -0.1059541 0.80248737
0.3130725 -0.091582455 0.69363761
0.38394916 -0.1008537 0.76385736
0.56602913 -0.099853076 0.75627851
-0.16136603 -0.065116771 0.5005601
-0.047064021 -0.075725436 0.58211023
0.17567648 -0.12408142 0.95382845
0.16745447 -0.11559142 0.88856459
0.1636871 -0.10359182 0.79632223
0.22825514 -0.12275566 0.94363678
0.21504162 -0.10291795 0.79114246
0.27492613 -0.12288199 0.94460821
0.27766681 -0.12231064 0.94021606
0.307576 -0.12634169 0.97120285
0.26138043 -0.098706111 0.75876522
0.28048664 -0.096902646 0.74490201
0.31228364 -0.090006426 0.69188976
0.3541503 -0.093242295 0.71676445
0.37913603 -0.098541856 0.75750279
0.38676035 -0.099672243 0.76619208
0.37143862 -0.091835208 0.70594776
0.51932085 -0.097203866 0.7472173
0.54137903 -0.10010123 0.76949
-0.078400895 -0.052327797 0.40835321
-0.079964772 -0.055215646 0.43088937
-0.078116044 -0.055210847 0.43085176
-0.060134754 -0.063443542 0.49509776
-0.052547053 -0.073560685 0.57404941
-0.050982937 -0.073077418 0.57027805
0.13889793 -0.1038705 0.81057942
0.15141994 -0.10180615 0.79447007
0.17210643 -0.1009915 0.78811252
0.2114013 -0.10125594 0.79017603
0.28595567 -0.12498367 0.97534168
0.23595844 -0.10020907 0.78200674
0.25928241 -0.10082954 0.7868489
0.26433533 -0.098943852 0.77213359
0.36854291 -0.091999657 0.71794271
0.39714777 -0.097118489 0.75788879
0.55904984 -0.10120869 0.78980756
0.55088145 -0.091699943 0.71560371
-0.056515768 -0.064385787 0.5101918
0.065482065 -0.093906894 0.74411666
0.07323654 -0.095727324 0.75854182
0.13857085 -0.10334258 0.81888485
0.17025714 -0.11532083 0.91380072
0.1763237 -0.11807533 0.93562746
0.16838716 -0.11149611 0.88349354
0.18777169 -0.12160403 0.96358848
0.18621878 -0.11552972 0.9154557
0.17729862 -0.10049256 0.79630172
0.22543718 -0.1022558 0.81027365
0.27661031 -0.12264091 0.97180486
0.28785878 -0.12390645 0.9818325
0.23551039 -0.099203907 0.78609037
0.27392 -0.092329249 0.73161554
0.34030473 -0.10455823 0.82851779
0.34673482 -0.10543654 0.83547759
0.375386 -0.089311168 0.70770037
0.56926817 -0.092551902 0.73337972
-0.19458006 -0.076006867 0.61170173
-0.05535619 -0.064585388 0.51978183
0.039777949 -0.088356212 0.71108878
0.18894525 -0.11421513 0.9192009
0.17365001 -0.098805085 0.79518104
0.251926 -0.12086689 0.97273409
0.21213676 -0.096975289 0.78045499
0.22236334 -0.099307559 0.79922521
0.23127158 -0.1017231 0.8186655
0.28316057 -0.12361084 0.99481761
0.28428382 -0.12226501 0.98398638
0.23854642 -0.098934673 0.79622388
0.25618041 -0.099173069 0.79814291
0.26119965 -0.098492697 0.79266703
0.280662 -0.10447621 0.84082234
0.29775536 -0.10479972 0.84342599
0.30687016 -0.10671566 0.85884535
0.26244724 -0.090724625 0.73014998
0.34798872 -0.10472688 0.84283984
0.37139696 -0.087707572 0.70586872
0.57286978 -0.091200255 0.73397768
-0.20510836 -0.058445163 0.47784245
-0.078576252 -0.050621148 0.41387415
-0.078437731 -0.052298214 0.42758554
-0.076896712 -0.052493963 0.42918605
0.042014107 -0.085341483 0.69774449
0.19049786 -0.11104251 0.90787387
0.17381589 -0.097351909 0.79594088
0.21065031 -0.095540233 0.78112888
0.25286448 -0.10036777 0.82059824
0.26962095 -0.094557419 0.7730931
0.30179441 -0.10455921 0.85486722
0.29024661 -0.099953234 0.81720901
0.3476252 -0.10245009 0.837623
0.34538782 -0.10024194 0.81956947
0.37232327 -0.088344827 0.7222997
0.4340207 -0.08928635 0.7299974
0.46328658 -0.093624063 0.76546216
0.46962297 -0.093909636 0.76779699
0.55683339 -0.090738922 0.74187338
0.56364989 -0.089554556 0.73219013
-0.077502623 -0.051452756 0.42746854
-0.057300851 -0.061084278 0.50748706
-0.057200506 -0.062153839 0.51637298
-0.049724743 -0.061104652 0.50765651
-0.052269205 -0.07037396 0.58466572
0.039688513 -0.085398592 0.70949006
0.049095288 -0.094775744 0.78739536
0.053463459 -0.093584299 0.77749658
0.14179127 -0.096006274 0.79761851
0.15193506 -0.099293046 0.82492495
0.20885797 -0.12358606 1.0267506
0.1895877 -0.10348469 0.85974896
0.25600082 -0.12097485 1.005057
0.21026321 -0.094598465 0.78592265
0.21410532 -0.094072394 0.78155196
0.29015732 -0.12088567 1.0043161
0.25895828 -0.095209137 0.79099584
0.27406126 -0.092879102 0.77163804
0.24923559 -0.08296784 0.68929541
0.2687912 -0.088951916 0.73901105
0.27037609 -0.088953674 0.73902559
0.35623109 -0.10493875 0.87182927
0.34331888 -0.097562723 0.81054938
0.36154264 -0.087695673 0.72857428
0.37549895 -0.090690315 0.75345361
0.41385591 -0.083784655 0.6960814
0.46279597 -0.092038147 0.7646513
0.5780713 -0.091658235 0.76149511
0.56237882 -0.088670753 0.73667514
0.57210368 -0.089205064 0.74111414
-0.080956683 -0.050496515 0.42641222
-0.052332208 -0.069320656 0.58537042
0.075923398 -0.085548244 0.72240257
0.16459011 -0.10582597 0.89363551
0.1983615 -0.10863052 0.91731846
0.18653448 -0.097342841 0.8220005
0.18994777 -0.096400231 0.81404102
0.26789349 -0.12050509 1.0175921
0.34883976 -0.0985246 0.83197999
0.37847316 -0.086948924 0.73423052
0.37897217 -0.084268257 0.71159399
0.58698356 -0.092086464 0.77761388
0.58844846 -0.091282427 0.77082431
-0.19715248 -0.071709618 0.61565202
-0.19364949 -0.071388401 0.61289442
-0.18355893 -0.069550484 0.59711522
-0.078366444 -0.049758829 0.42719692
-0.055673674 -0.059692148 0.51247793
0.16020544 -0.096821234 0.83124423
0.19089778 -0.093577363 0.80339456
0.19835426 -0.093855552 0.80578256
0.20830812 -0.094464421 0.81101012
0.2217326 -0.096535675 0.82879257
0.30214781 -0.11663707 1.0013701
0.29346025 -0.11016209 0.94578004
0.27499908 -0.096579202 0.82916629
0.29594046 -0.093671523 0.80420291
0.35334581 -0.10628571 0.9124999
0.35353357 -0.097712778 0.8388983
0.37418556 -0.087453425 0.75081825
0.46124882 -0.091680795 0.78711164
0.46135253 -0.090708897 0.77876747
0.43544954 -0.084098883 0.72201848
-0.077201948 -0.048769385 0.42581016
-0.058434471 -0.058172844 0.50791258
-0.05727531 -0.058098186 0.5072608
0.064830363 -0.10166219 0.887622
0.17376913 -0.11911745 1.0400256
0.14070959 -0.094049215 0.82115245
0.15990405 -0.099436887 0.86819267
0.15661727 -0.09411642 0.82173944
0.21275775 -0.1173272 1.0243948
0.17120348 -0.09158425 0.79963064
0.19891779 -0.091754414 0.80111623
0.21462761 -0.089731999 0.78345847
0.29551131 -0.092511706 0.80772817
0.33784193 -0.09829814 0.85825014
0.3562507 -0.1025408 0.89529324
0.33883148 -0.0930297 0.81225073
0.35860151 -0.082767121 0.72264743
0.42588013 -0.08541853 0.74579716
0.44480842 -0.084472381 0.73753619
-0.21417426 -0.055080656 0.48921937
-0.20904605 -0.055107016 0.48945343
-0.1826825 -0.051233936 0.45505333
-0.16864227 -0.072325394 0.64238489
-0.063574746 -0.070020638 0.62191439
0.082982406 -0.094672479 0.84086883
0.16843025 -0.089464284 0.79461038
0.1854064 -0.089460701 0.79457855
0.19970657 -0.08978162 0.79742885
0.21470721 -0.091823459 0.81556416
0.25705189 -0.082478508 0.7325635
0.2801069 -0.089331917 0.79343474
0.33120614 -0.097375013 0.86487269
0.33498621 -0.095295183 0.84639966
0.34279877 -0.093479119 0.83026969
0.37423861 -0.083826736 0.74453866
0.45128834 -0.087343454 0.77577341
0.45409691 -0.083880581 0.74501681
0.44448704 -0.08125069 0.72165835
-0.20936768 -0.051653761 0.4668442
-0.20888828 -0.053314056 0.48184991
-0.20617981 -0.055066235 0.49768597
-0.17905714 -0.049614128 0.44841021
-0.17643814 -0.05079148 0.45905101
-0.1784092 -0.05193653 0.46939987
-0.19593208 -0.07003399 0.63296407
-0.16583543 -0.070467092 0.63687813
-0.051122293 -0.061793238 0.55848444
0.0321237 -0.082437173 0.7450633
0.077663645 -0.09764871 0.88254416
0.18063964 -0.088075727 0.79602432
0.19153626 -0.08839339 0.79889536
0.20102461 -0.087322958 0.78922069
0.22005065 -0.091005765 0.82250583
0.28789204 -0.11191031 1.0114402
0.26919293 -0.089805707 0.81165981
0.282561 -0.093065925 0.84112573
0.26424646 -0.081827521 0.73955333
0.34889662 -0.097014435 0.87681186
0.38236982 -0.08276131 0.74799263
0.46430278 -0.087666243 0.79232323
0.41424274 -0.075197294 0.67962956
0.45074028 -0.080970861 0.73181081
-0.21012668 -0.051420145 0.47304547
-0.21558033 -0.055987429 0.51506275
-0.18975608 -0.050838374 0.46769345
-0.18624698 -0.050429549 0.46393239
-0.17776121 -0.049448203 0.45490438
-0.1773883 -0.050731901 0.46671385
-0.17878442 -0.051420316 0.47304714
-0.19019024 -0.069673464 0.64096916
-0.081541464 -0.046685889 0.42949224
-0.061097935 -0.053733654 0.49432898
-0.056802318 -0.057976373 0.53336036
-0.055330262 -0.057630494 0.53017843
0.020609722 -0.079572439 0.73203588
0.032210961 -0.085444242 0.78605425
0.088066205 -0.091084205 0.83793986
0.19223301 -0.084885761 0.78091621
0.20460196 -0.085873917 0.79000688
0.20647903 -0.085952416 0.79072917
0.2248954 -0.092858672 0.85426402
0.33417028 -0.088899158 0.81783831
0.36766225 -0.080191262 0.73772883
0.45451927 -0.087502405 0.80498862
0.40267134 -0.071812205 0.66064477
0.48722929 -0.085987672 0.79105353
-0.20291378 -0.04717784 0.44192266
-0.20410447 -0.047676615 0.44659477
-0.2092822 -0.051792681 0.48515052
-0.19154941 -0.050400902 0.47211343
-0.18439357 -0.067311428 0.63051724
-0.17719795 -0.065644227 0.61490029
-0.04999809 -0.06116686 0.57296014
0.068868965 -0.097799942 0.91610801
0.079838157 -0.082780644 0.77542007
0.17001544 -0.084772915 0.79408193
0.19316725 -0.091737837 0.8593235
0.18570487 -0.084191278 0.78863358
0.18693025 -0.083984531 0.78669703
0.19664915 -0.083826892 0.78522038
0.20614906 -0.084280103 0.78946531
0.27638459 -0.087276988 0.81753838
0.28309387 -0.088834032 0.83212328
0.25860953 -0.080644272 0.75540829
0.46498734 -0.087584972 0.82042277
0.45075202 -0.08395382 0.78640938
0.47382617 -0.08600644 0.80563641
-0.22537868 -0.046471283 0.44337928
-0.2038496 -0.046532232 0.44396091
-0.20664893 -0.048526544 0.4629885
-0.22049211 -0.0530474 0.50612164
-0.19028945 -0.049680866 0.47400194
-0.184063 -0.048835289 0.4659341
-0.17624675 -0.047795858 0.4560172
-0.17552118 -0.048402116 0.46180129
-0.16021447 -0.066117808 0.63082552
-0.077299401 -0.044686146 0.42634755
0.19591002 -0.096872397 0.92425287
0.18218099 -0.08258871 0.7879734
0.18621574 -0.08213976 0.78369009
0.25751686 -0.10088603 0.96254718
0.28391922 -0.10224445 0.97550738
0.26752925 -0.084004194 0.80147827
0.25330532 -0.076595165 0.73078954
0.32413578 -0.084023982 0.80166709
0.32596755 -0.0840545 0.80195832
0.43198383 -0.082052492 0.78285742
0.47596186 -0.08768861 0.83663118
0.44262201 -0.079166852 0.75532556
0.48523235 -0.085848711 0.8190769
-0.22383611 -0.051835679 0.50390863
-0.19379769 -0.049395245 0.48018444
-0.17917047 -0.047165744 0.4585107
-0.17555471 -0.0472476 0.45930678
-0.17669974 -0.048093647 0.46753138
-0.17902155 -0.049853317 0.48463762
-0.16035227 -0.060374349 0.58691525
-0.17076842 -0.065841362 0.64006168
-0.16372888 -0.064681716 0.62878829
-0.077140376 -0.043766975 0.42547053
0.035744235 -0.085280649 0.82903612
0.068195641 -0.09073627 0.88207209
0.17565964 -0.08439675 0.82044351
0.17931978 -0.080528051 0.78283465
0.20279382 -0.08329735 0.80975604
0.21150605 -0.085417956 0.83037066
0.21399687 -0.085704677 0.83315825
0.21967299 -0.087251902 0.84819901
0.28443432 -0.1005298 0.97727728
0.28979254 -0.10094108 0.98127496
0.46796215 -0.082750112 0.80443597
0.44737792 -0.076306567 0.74179673
-0.17710419 -0.04624648 0.45823568
-0.19163238 -0.06761416 0.66995859
-0.16124918 -0.063015252 0.6243903
-0.15855412 -0.063004963 0.62428802
-0.15513377 -0.062168993 0.61600482
-0.080998525 -0.043547258 0.4314903
-0.057324931 -0.051238578 0.50770032
0.040615961 -0.07618808 0.75491369
0.082726479 -0.094875276 0.94007707
0.075085357 -0.075159125 0.74471831
0.1864243 -0.090588741 0.89760339
0.18573351 -0.078184143 0.77469194
0.24860723 -0.072385468 0.71723545
0.32066733 -0.085947134 0.85161197
0.47037303 -0.080422342 0.79686916
0.47154593 -0.079756521 0.79027188
0.41872203 -0.068848982 0.68219399
-0.17681508 -0.046045374 0.46520567
-0.15756296 -0.061404839 0.62038541
-0.1491438 -0.059629209 0.60244578
-0.061513498 -0.060832307 0.6146009
0.039539516 -0.086482406 0.87374902
0.052398905 -0.077842712 0.78646016
0.077059284 -0.091098383 0.920385
0.070867062 -0.072650276 0.73400021
0.16817822 -0.10091919 1.0196066
0.17312567 -0.10126363 1.0230868
0.20090009 -0.10093582 1.0197747
0.20493601 -0.098681077 0.99699461
0.25676894 -0.095759839 0.96748066
0.26578432 -0.097550869 0.98557568
0.28168726 -0.099446803 1.0047307
0.28513765 -0.097686052 0.98694158
0.28755552 -0.096375465 0.97370017
0.46239394 -0.081988089 0.82834196
0.47653186 -0.079905666 0.80730295
0.45726472 -0.073227949 0.73983657
0.4914214 -0.077889837 0.78693664
0.49385542 -0.078008629 0.78813672
-0.16781692 -0.061527364 0.63407874
-0.15450655 -0.059531897 0.61351436
-0.061616227 -0.05973696 0.61562759
-0.046121702 -0.053928044 0.55576289
0.077897072 -0.073412947 0.75656712
0.30464405 -0.081274338 0.83758414
0.44377017 -0.078645825 0.81049562
0.45921999 -0.076040827 0.78364968
0.48287666 -0.078245752 0.80637252
-0.16507553 -0.060283229 0.63396001
-0.14684264 -0.059483975 0.62555498
-0.15254648 -0.062940694 0.6619072
-0.059917018 -0.048619464 0.51129985
-0.059172049 -0.048906963 0.51432329
-0.046158686 -0.052889813 0.55620843
0.03798762 -0.083780691 0.88106787
0.057943463 -0.077711813 0.8172456
0.067354694 -0.082841799 0.8711946
0.068556428 -0.082051575 0.86288404
0.077343002 -0.083574608 0.87890077
0.10678846 -0.089350581 0.93964291
0.2042179 -0.096478269 1.0146003
0.22150023 -0.097402781 1.0243229
0.19955616 -0.082840286 0.87117839
0.36952156 -0.080519691 0.84677422
0.46145886 -0.072500579 0.76244235
0.45020521 -0.069747284 0.73348761
0.49180609 -0.075145513 0.79025733
-0.20843183 -0.057920009 0.62182248
-0.08757554 -0.041562025 0.44620502
-0.045512214 -0.05108276 0.54841852
0.050071284 -0.083374403 0.89509785
0.052146375 -0.083634079 0.89788556
0.043927744 -0.065622672 0.70451736
0.046762228 -0.06754183 0.7251209
0.049607366 -0.069352664 0.74456179
0.065346703 -0.078728758 0.84522259
0.19513293 -0.096446246 1.0354353
0.20255925 -0.094744042 1.0171608
0.18660127 -0.077321403 0.83011365
0.36451054 -0.078186639 0.83940268
0.39827102 -0.076068126 0.81665838
0.40792859 -0.075916395 0.8150295
0.44510305 -0.075134255 0.8066324
0.44361913 -0.074594818 0.80084121
0.47487563 -0.075481959 0.81036544
0.49147636 -0.077554956 0.83262086
0.23959872 -0.035495207 0.3810724
-0.13252889 -0.036762249 0.40308917
-0.16320513 -0.061180338 0.67082787
-0.079027519 -0.039289542 0.4308005
-0.054471448 -0.047602456 0.52194941
0.027950674 -0.078607589 0.86191344
0.024932936 -0.061953932 0.6793102
0.035541609 -0.06544733 0.71761453
0.071219042 -0.077578552 0.85063028
0.069286451 -0.064031191 0.70208669
0.10292765 -0.084181599 0.92303145
0.17708619 -0.071847007 0.78778565
0.47663462 -0.071318768 0.78199327
0.24418277 -0.035061643 0.38444251
0.25313896 -0.035746194 0.39194858
