# .PCD v0.7 - Point Cloud Data file format
VERSION 0.7
FIELDS x y z
SIZE 4 4 4
TYPE F F F
COUNT 1 1 1
WIDTH 1347
HEIGHT 1
VIEWPOINT 0 0 0 1 0 0 0
POINTS 1347
DATA ascii
-0.11476094 -0.012473285 0.24763066
-0.077788234 -0.010308981 0.2046631
-0.17278183 -0.02596432 0.51546639
-0.17145139 -0.026266843 0.52147275
-0.13086522 -0.022539884 0.44748181
-0.1035139 -0.019542873 0.38798314
-0.076509833 -0.019014418 0.37749171
-0.018277198 -0.0088215768 0.17513341
-0.034830093 -0.022288531 0.44249266
-0.023278505 -0.019714236 0.39138478
0.13876212 -0.032006502 0.63542181
0.13706055 -0.031307578 0.6215468
0.18290509 -0.031196475 0.61934036
0.18947382 -0.031407654 0.623532
0.19332522 -0.031383753 0.62305945
0.19382264 -0.030827492 0.61201483
0.19906977 -0.031033754 0.61610907
0.20824745 -0.031627625 0.62789923
0.20898731 -0.031536728 0.62609524
0.13697007 -0.019309103 0.38334161
0.13160552 -0.017310292 0.34365904
0.29975343 -0.037944585 0.75330991
0.17701912 -0.018527061 0.36781532
0.18287601 -0.014750928 0.29284805
0.18069281 -0.014329612 0.28448355
0.18017583 -0.014193088 0.28177333
-0.10760546 -0.01114133 0.2300685
-0.11243519 -0.012083143 0.24951667
-0.11329678 -0.012233734 0.25262707
-0.1091378 -0.012072355 0.24929386
-0.080904245 -0.010137081 0.20932996
-0.11000276 -0.015213221 0.31415302
-0.1089744 -0.015163571 0.31312758
-0.1300683 -0.021696419 0.44803125
-0.11767176 -0.020857036 0.43069762
-0.11436528 -0.020430833 0.4218958
-0.067133009 -0.015390873 0.31782109
-0.021177739 -0.009826988 0.2029267
-0.033937216 -0.020326972 0.41975182
-0.026930392 -0.01917094 0.39587986
0.059711739 -0.017530829 0.36201179
0.15606141 -0.029921591 0.61788028
0.20071448 -0.029689521 0.61308831
0.19263984 -0.027769923 0.57344872
0.20072679 -0.028752744 0.59374434
0.20333195 -0.028061509 0.57946903
0.15093756 -0.01930216 0.39858973
0.30880785 -0.037380993 0.77191824
0.32887739 -0.035623252 0.73562163
0.33043647 -0.035621911 0.73559219
-0.12442505 -0.011773735 0.25329733
-0.10904944 -0.010690957 0.23000264
-0.11083022 -0.011710167 0.2519297
-0.079304636 -0.0096985996 0.20865279
-0.095528841 -0.012161434 0.26163828
-0.033298925 -0.016908884 0.3637737
-0.022519037 -0.018254787 0.39272904
0.048694491 -0.018204182 0.3916406
0.076580018 -0.017317057 0.37255442
0.16323124 -0.0297876 0.64084405
0.16956168 -0.030183077 0.64935082
0.17291251 -0.030283749 0.65151769
0.15933706 -0.027463764 0.59085006
0.17258865 -0.027767211 0.5973776
0.17597353 -0.027898997 0.60021299
0.19429955 -0.027951598 0.60134548
0.14158785 -0.018419147 0.39626557
0.13673888 -0.017474741 0.37594801
0.21723379 -0.026367188 0.56725866
0.30794826 -0.035780311 0.76976949
0.17620924 -0.016794771 0.36131859
-0.11814484 -0.010265172 0.23048389
-0.1174759 -0.010249823 0.23013842
-0.10806426 -0.010243565 0.22999841
-0.09607017 -0.0098699033 0.22160846
-0.088892132 -0.011103153 0.24929881
-0.11134297 -0.014162093 0.31798047
-0.091363549 -0.013236791 0.29720467
-0.12375778 -0.019711673 0.44258612
-0.11868048 -0.019499183 0.43781465
-0.036916435 -0.014561623 0.3269518
-0.032470196 -0.013311774 0.29888916
-0.03422153 -0.016270578 0.36532259
-0.023395896 -0.018172234 0.40802103
0.032659397 -0.018814057 0.42243057
0.075890392 -0.01715678 0.38522184
0.098134644 -0.015954345 0.35822242
0.29693022 -0.033778846 0.7584365
0.29695868 -0.033237785 0.74628645
0.17738019 -0.016058415 0.36055934
0.17917477 -0.012691885 0.2849704
-0.10083631 -0.0094863772 0.22272003
-0.081243753 -0.0090535581 0.21255934
-0.080062568 -0.0090228915 0.21183825
-0.11011195 -0.01390326 0.32641971
-0.098676294 -0.013484627 0.31659055
-0.09803775 -0.01358366 0.31891572
-0.12424162 -0.019070625 0.44773895
-0.075679779 -0.012278616 0.28827626
-0.078657269 -0.012866408 0.30207729
-0.06912145 -0.014225841 0.33399385
-0.037589401 -0.013916373 0.32672721
-0.0369194 -0.01419577 0.33328712
-0.036773354 -0.015649348 0.3674143
-0.025298715 -0.015357614 0.36056548
0.030593708 -0.016854644 0.39571238
0.066094086 -0.017521441 0.41136652
0.082097724 -0.018143564 0.42597324
0.16189308 -0.02825743 0.66342527
0.16406804 -0.028388321 0.66650027
0.16071829 -0.025384337 0.595972
0.16733801 -0.025815994 0.60610753
0.17323601 -0.025923193 0.60862345
0.17977847 -0.025742412 0.60437912
0.17113781 -0.016073912 0.37738258
0.17883635 -0.012073815 0.28346854
-0.11909509 -0.0094442666 0.23233765
-0.11800206 -0.0094761252 0.23312134
-0.11130583 -0.0094154775 0.23162913
-0.10965672 -0.0094014108 0.23128343
-0.13798052 -0.013608873 0.33479077
-0.13596293 -0.013550401 0.3333528
-0.086064994 -0.0087611377 0.21553129
-0.11079881 -0.012631029 0.31073636
-0.10817614 -0.013374269 0.32901973
-0.08917743 -0.015876174 0.39056772
-0.068989754 -0.013013035 0.32013267
-0.066453815 -0.013763189 0.33858788
-0.03647083 -0.012650847 0.31122255
-0.033531934 -0.014550716 0.35796082
-0.030003905 -0.014327377 0.35246706
0.032818109 -0.01725477 0.4244836
0.037507117 -0.017756611 0.43682796
0.041990459 -0.01396811 0.34362835
0.059792861 -0.016439557 0.40442818
0.16195849 -0.026065171 0.64122814
0.16440117 -0.025179863 0.61944765
0.17812663 -0.025248706 0.62114125
0.18573271 -0.025564641 0.62891513
0.18350258 -0.02507621 0.61689872
0.18656489 -0.022865891 0.56252295
0.19474275 -0.023564458 0.57970887
0.20096275 -0.024011582 0.59070784
0.20252711 -0.024047405 0.59158915
0.17052013 -0.015284806 0.37602049
0.17727059 -0.014711171 0.36190891
-0.11521956 -0.0091581345 0.23661637
-0.10888004 -0.008888334 0.22964531
-0.10613257 -0.0087828338 0.22691929
-0.10697502 -0.0090595186 0.23406881
-0.0972763 -0.0086001456 0.22219974
-0.081255168 -0.0083212256 0.21499377
-0.10928071 -0.012006044 0.31019753
-0.10761574 -0.012117177 0.31306905
-0.10774806 -0.01260227 0.3256011
-0.10839424 -0.012843758 0.3318404
-0.077094197 -0.01282832 0.33144206
-0.0698331 -0.012542039 0.32404608
-0.067446679 -0.012234807 0.31610745
-0.035436302 -0.011704057 0.30239469
-0.037103057 -0.012963891 0.33494502
-0.029914588 -0.013601482 0.35141778
0.038253739 -0.017243773 0.44552344
0.045443147 -0.016401738 0.42376798
0.043061823 -0.01388213 0.35866952
0.043348461 -0.013266027 0.34275156
0.051802203 -0.01461798 0.37768072
0.053440869 -0.01440686 0.3722266
0.052085593 -0.013635516 0.3522976
0.1626806 -0.023534954 0.60806781
0.20343339 -0.022856951 0.59054953
0.1755411 -0.014117271 0.36474425
-0.1139392 -0.0086393654 0.23501855
-0.11255458 -0.0085721612 0.2331906
-0.10881743 -0.008361578 0.22746241
-0.10767931 -0.0083487034 0.22711271
-0.10969546 -0.008741498 0.23779708
-0.10880506 -0.0087516308 0.23807299
-0.10847086 -0.0087657571 0.23845696
-0.10735726 -0.0087580383 0.23824775
-0.09232837 -0.0084543228 0.22998554
-0.087123752 -0.0080636144 0.21935678
-0.085793823 -0.0082054734 0.22321558
-0.1061452 -0.011945426 0.32495517
-0.083252162 -0.011949301 0.32506001
-0.090479136 -0.014566869 0.39626873
-0.035094291 -0.012889534 0.35063845
-0.032580897 -0.012500346 0.34004968
-0.030080542 -0.014440119 0.3928194
-0.020773277 -0.017154157 0.466649
0.032181382 -0.015301377 0.4162479
0.06386663 -0.01543355 0.41984302
0.16675141 -0.022031993 0.59934312
0.18358107 -0.023017764 0.62616092
0.18964227 -0.021575719 0.58693141
0.19065553 -0.021268934 0.57858557
0.19777864 -0.021505624 0.58502382
0.28579864 -0.027743936 0.75472528
0.29805964 -0.028295279 0.76972562
0.17561358 -0.013354331 0.36328161
-0.12015387 -0.0081951618 0.23538458
-0.10760283 -0.0076264739 0.21905154
-0.10493702 -0.0078113973 0.22436315
-0.086521208 -0.0076253414 0.2190184
-0.087174058 -0.0077669024 0.22308505
-0.080544174 -0.0074619055 0.21432453
-0.10391891 -0.011004329 0.31607127
-0.14173794 -0.017382026 0.49925524
-0.089175642 -0.012022167 0.34530669
-0.087419182 -0.011883736 0.34133017
-0.091983497 -0.013642728 0.39185309
-0.084915221 -0.013451725 0.38636756
-0.034670264 -0.010896802 0.31298321
-0.032232642 -0.011456996 0.32907379
-0.030872405 -0.014036357 0.40315992
0.034169793 -0.014209032 0.40811926
0.042920291 -0.012446344 0.3574906
0.050603554 -0.012647927 0.36328059
0.052152038 -0.012461364 0.35792136
0.05565773 -0.012919962 0.37109423
0.17991382 -0.021364808 0.61365277
0.18145497 -0.021391928 0.61443001
0.18167959 -0.020527035 0.58958834
0.18666519 -0.020520955 0.58941454
0.19289011 -0.020119071 0.57787055
0.28909594 -0.026430428 0.7591477
0.30640668 -0.026809275 0.7700302
0.17493851 -0.012711763 0.36511368
-0.11389393 -0.0077223778 0.23492521
-0.10903484 -0.0078423619 0.23857582
-0.081225157 -0.0070645511 0.21491432
-0.12240654 -0.011150807 0.33922356
-0.14198399 -0.016564488 0.50391561
-0.092033595 -0.011714548 0.35637331
-0.086046487 -0.011729032 0.35681456
-0.088878512 -0.012795508 0.38925856
-0.08728835 -0.012806326 0.38958794
-0.030244112 -0.013355583 0.40629572
0.04190132 -0.012351871 0.37576097
0.0422858 -0.011787415 0.35858923
0.047332332 -0.011708647 0.35619271
0.052447945 -0.011832148 0.35995209
0.16494912 -0.019488394 0.59286529
0.28980249 -0.025156498 0.76529843
0.29384539 -0.025222778 0.76731306
0.17563531 -0.011943132 0.36332637
-0.10572562 -0.0069592893 0.22502089
-0.10495508 -0.0069719851 0.22543186
-0.10936728 -0.0074357688 0.24042767
-0.10989705 -0.0075426698 0.24388403
-0.10238272 -0.007722944 0.24971265
-0.090851128 -0.0069619417 0.22510737
-0.085050344 -0.0069206059 0.22376996
-0.14016932 -0.016248286 0.52537233
-0.022935927 -0.012370884 0.39999962
-0.020214826 -0.013400793 0.43330044
0.037978292 -0.011175841 0.36135894
0.052875385 -0.011223048 0.36288559
0.18105227 -0.019525737 0.63134331
0.18832999 -0.01839149 0.59467155
0.19979669 -0.018998444 0.6142953
-0.10863823 -0.0063821077 0.22020131
-0.107952 -0.0063693523 0.21976238
-0.10298106 -0.0063524842 0.21917951
-0.10759813 -0.0068235099 0.23543221
-0.096074462 -0.0064549744 0.22271645
-0.094283104 -0.0067350864 0.23238033
-0.090056807 -0.0066431463 0.22920847
-0.11966234 -0.0097851455 0.33761793
-0.1041542 -0.0087817907 0.30299884
-0.10367817 -0.008964628 0.30930686
-0.026409492 -0.011616796 0.4008159
-0.017534897 -0.012629211 0.43574566
0.040371865 -0.009922564 0.34235889
0.041542828 -0.0098531544 0.3399654
0.053354397 -0.010612756 0.36617309
0.19354664 -0.018078744 0.62377268
0.21509106 -0.017765999 0.61298102
0.1721054 -0.011051565 0.38131356
0.17407417 -0.011021405 0.38027328
-0.10771769 -0.0063138008 0.23350972
-0.1101698 -0.0066739619 0.24683094
-0.099230647 -0.0066129565 0.24457455
-0.094644874 -0.0063745081 0.23575586
-0.088484496 -0.0061562359 0.2276839
-0.11540809 -0.0088576078 0.32759035
-0.13487816 -0.013244718 0.48984367
-0.089906752 -0.01095441 0.40513927
-0.03200224 -0.0092372298 0.34163111
-0.025591373 -0.0083380044 0.30837417
-0.030237585 -0.011307985 0.41821629
-0.020858169 -0.010216475 0.37784785
0.039743796 -0.009455651 0.34970993
0.040161774 -0.0093787313 0.34686422
0.040711239 -0.009334743 0.34523684
0.16491185 -0.016404659 0.60671371
0.19005263 -0.017527282 0.64823419
0.20573321 -0.01614812 0.59722584
0.1682204 -0.0098443627 0.36408538
0.17338336 -0.0098724961 0.36512548
0.17901739 -0.0098819137 0.36547512
0.17698267 -0.0094800591 0.35061169
-0.1037401 -0.005515635 0.21979511
-0.10968605 -0.0061964989 0.24692953
-0.090340018 -0.0058014691 0.23118693
-0.087883711 -0.0057379007 0.22865301
-0.086960822 -0.0057739317 0.23009044
-0.1124526 -0.0077742934 0.30980343
-0.10219324 -0.0074603856 0.2972942
-0.1391167 -0.012296706 0.49002224
-0.13700101 -0.012989879 0.51764411
-0.096656084 -0.010147959 0.40439433
-0.032194212 -0.010853082 0.43249279
-0.025874287 -0.010184705 0.40585881
0.03922689 -0.0095606148 0.38098705
0.04071717 -0.0089906752 0.3582747
0.043376744 -0.008907795 0.35497314
0.079574868 -0.0087995827 0.35066229
0.16632664 -0.015984088 0.63696212
0.15732472 -0.01030919 0.41081923
0.17114766 -0.010851562 0.43243378
0.30650842 -0.019124269 0.76209885
0.16953871 -0.0091236234 0.36357492
0.18319187 -0.009224236 0.36758173
0.17426997 -0.0086634755 0.34523773
0.16997641 -0.008379072 0.33390433
0.19085565 -0.0070206821 0.27977216
-0.10546786 -0.0051265955 0.22145015
-0.092208087 -0.0054329336 0.23468387
-0.1197117 -0.0078190565 0.33775711
-0.14676699 -0.011790276 0.50930089
-0.13466191 -0.011148602 0.48158199
-0.13676387 -0.012060106 0.52095515
-0.095694482 -0.0092685819 0.40037107
-0.021350265 -0.0086197853 0.37234592
-0.018134266 -0.010432243 0.45064002
0.042045966 -0.00825423 0.35655564
0.042814046 -0.0082554221 0.35660553
0.16128847 -0.014068604 0.60771948
0.2140425 -0.013785362 0.59548408
0.17739992 -0.0084210336 0.36376017
0.18293631 -0.0063067675 0.27243119
0.18820854 -0.0064069331 0.27675891
0.16793784 -0.0055091381 0.23797578
-0.10735527 -0.0046344399 0.21854758
-0.10504717 -0.0046772659 0.22056681
-0.11194542 -0.0053441525 0.25201583
-0.109173 -0.0065714419 0.30989182
-0.10270607 -0.006375581 0.30065542
-0.15037793 -0.010746926 0.50679594
-0.098315954 -0.0084214807 0.39713377
-0.092178404 -0.0080344677 0.37888414
0.035768628 -0.0084148943 0.3968246
0.063056663 -0.0087901354 0.41451865
0.16602901 -0.013055563 0.61566502
0.1695264 -0.013122529 0.61882466
0.18565263 -0.013140559 0.61967415
0.19368443 -0.013328671 0.62854654
0.21071975 -0.01313448 0.61938733
0.17347935 -0.0081505477 0.38435763
0.1816635 -0.0081861615 0.38603753
0.17754221 -0.0077539086 0.36565453
0.17259707 -0.0073126256 0.34484386
0.16925919 -0.0069630444 0.32835948
0.18329629 -0.0057700872 0.27210104
0.18927544 -0.0058836043 0.27745581
0.1688567 -0.005104959 0.24073601
0.1698513 -0.0050885081 0.23996037
-0.11974689 -0.0045566261 0.23656839
-0.13356447 -0.0053064823 0.27549887
-0.11363414 -0.0049037635 0.2545926
-0.10983458 -0.004832387 0.25088549
-0.11621776 -0.0060952306 0.31644946
-0.089616597 -0.0047276318 0.24544561
-0.13628346 -0.009316355 0.48368376
-0.13486558 -0.0096590817 0.50147575
-0.09106344 -0.0072095394 0.3743012
-0.029684842 -0.0065522492 0.34017777
-0.017873347 -0.0085550547 0.44415659
0.17177045 -0.011983663 0.62216192
0.17272455 -0.01186645 0.61607891
0.18378714 -0.011408865 0.59231919
0.19425774 -0.011504084 0.59726495
0.19854167 -0.0094083548 0.48846012
0.17423627 -0.0072973073 0.37885833
0.17846139 -0.0071107447 0.36917251
0.1786406 -0.0070554912 0.36630416
0.17008165 -0.0064085126 0.33271408
0.17520076 -0.0048704743 0.25286269
0.17258558 -0.0046681762 0.24235964
-0.10336125 -0.0045804679 0.26450926
-0.096069664 -0.004503727 0.26007456
-0.13359118 -0.0075781345 0.43761319
-0.088092893 -0.0062157214 0.35893804
-0.023605734 -0.006634444 0.38311917
-0.018884689 -0.006162703 0.3558768
0.00099217892 -0.0068565607 0.39594442
0.01309517 -0.0069928467 0.40381378
0.038499027 -0.0075759888 0.43749028
0.046919435 -0.006534785 0.37736416
0.046370089 -0.0062436163 0.36055005
0.052765787 -0.0066619217 0.38470602
0.061163709 -0.0068662763 0.39650393
0.058998227 -0.0065326393 0.37723887
0.17278928 -0.010672629 0.6163097
0.17149173 -0.010355651 0.59800488
0.16523162 -0.0099037886 0.57191294
0.17002118 -0.0096890926 0.55951613
0.18698037 -0.0098903477 0.57113701
0.19535197 -0.0085474849 0.49359006
0.18026078 -0.006486088 0.374551
0.17319116 -0.0060179234 0.34751487
0.16627651 -0.0057529509 0.33221561
0.1712051 -0.0057754815 0.33351737
0.18258108 -0.0047539175 0.27452356
0.18431795 -0.0047083795 0.27189237
0.1786792 -0.0044935048 0.25948399
0.17140317 -0.0041309893 0.2385512
-0.10735452 -0.0034040809 0.22143656
-0.10559404 -0.0033931434 0.22072452
-0.10506961 -0.0041334033 0.26888108
-0.11683011 -0.0048902929 0.31811678
-0.097276181 -0.0043503046 0.28298986
-0.097017646 -0.0043658912 0.28400356
-0.14248258 -0.0072768927 0.47336787
-0.14021164 -0.0072121322 0.46915466
-0.12610084 -0.006726861 0.43758649
-0.13284338 -0.0074746013 0.48622817
-0.021708518 -0.0058200061 0.37859344
-0.00070372224 -0.0061158538 0.39783984
0.0026485324 -0.0060046613 0.39060867
0.0085505247 -0.0060456395 0.39327353
0.009375602 -0.0060356557 0.39262497
0.04000634 -0.0059731603 0.38855743
0.046881035 -0.0057963431 0.37705517
0.06114091 -0.0065465569 0.42585891
0.070137501 -0.0049372911 0.32117474
0.18669094 -0.0088822246 0.57779735
0.19080038 -0.0087871253 0.57160991
0.1773015 -0.005564481 0.36197191
0.17245597 -0.0051218271 0.33317965
0.1814979 -0.0042086542 0.27377468
0.18395033 -0.004224658 0.27481598
0.18352494 -0.0041748881 0.27157885
0.1860286 -0.0041789711 0.27184457
-0.10637069 -0.0029724836 0.22135901
-0.094341904 -0.0029961467 0.22312212
-0.11049107 -0.0041610897 0.30987322
-0.10696608 -0.0041021109 0.30548078
-0.099780679 -0.0039222836 0.29209197
-0.1206601 -0.0056225061 0.41870648
-0.0910393 -0.0054562986 0.40632921
-0.02750963 -0.0046930611 0.34949088
-0.029674113 -0.0053530335 0.39863825
-0.019796804 -0.0050096512 0.37306547
-0.01935859 -0.0051043332 0.38011777
0.0026372075 -0.0052227676 0.38893849
0.0042543262 -0.0051675439 0.38482404
0.0068146735 -0.0052388906 0.39014006
0.043659389 -0.0047152638 0.35114408
0.054652542 -0.005188942 0.38641876
0.060562998 -0.0055814385 0.4156459
0.060516283 -0.0049267113 0.36688924
0.074978143 -0.0045219958 0.33674932
0.1649878 -0.0084155798 0.62670511
0.17203763 -0.0076562762 0.57016236
0.16687509 -0.0073227882 0.54532701
0.19144122 -0.0079039633 0.5886057
0.19130483 -0.0077456236 0.57681471
0.17802824 -0.0049019754 0.36504841
0.17278789 -0.0046556294 0.34670573
0.18438655 -0.00367558 0.27371955
0.18493548 -0.0036403239 0.27109396
0.17697856 -0.0034299791 0.25542855
0.17462331 -0.0033228099 0.24744934
0.17658108 -0.00328058 0.24430418
-0.11953533 -0.0027005374 0.23515761
-0.10495734 -0.0031535029 0.27460158
-0.10999998 -0.0035641491 0.31035632
-0.10991073 -0.003582865 0.31198603
-0.14579523 -0.005523324 0.48095804
-0.13168049 -0.0051333308 0.44700271
-0.092173576 -0.0046797693 0.40750438
-0.037529409 -0.0046008527 0.40063512
-0.027958006 -0.0039711297 0.34579796
-0.017620206 -0.0045455694 0.39581871
0.0095428228 -0.0045892894 0.3996278
0.039488345 -0.0043148398 0.37572718
0.044963554 -0.004082799 0.3555218
0.055114686 -0.0044085383 0.38388515
0.16348517 -0.0070740581 0.6159963
0.16609654 -0.0071296394 0.62083596
0.17118603 -0.0071205497 0.62004524
0.16383614 -0.0058618784 0.51043957
0.19263311 -0.0064218044 0.55919749
0.20443192 -0.0066100657 0.57559198
0.21812534 -0.0070106685 0.61047286
0.22002241 -0.0070295334 0.61212069
0.18285309 -0.0046088398 0.40132493
0.17802964 -0.0042106807 0.36665833
0.17689359 -0.0041472912 0.36113924
0.16834694 -0.0038138032 0.33209783
0.16947559 -0.0038072765 0.33152854
0.17966095 -0.0031425953 0.27365059
0.18180406 -0.0031291544 0.27247947
0.18306133 -0.003130734 0.27261728
0.17665452 -0.0029189587 0.2541768
0.17435306 -0.0028287172 0.24632037
-0.11059976 -0.0029589832 0.3101781
-0.11092687 -0.0030037463 0.3148703
-0.040731966 -0.004148066 0.4348231
-0.026853263 -0.0041576326 0.435826
-0.019850999 -0.0035686791 0.37408662
-0.0092090964 -0.0041823983 0.43842274
-0.001637131 -0.0039981902 0.41911155
0.0026676059 -0.0037530661 0.39341968
0.0043242276 -0.0037314296 0.39114827
0.005159542 -0.0037309229 0.39109564
0.0069371164 -0.0037887096 0.39714956
0.037960827 -0.0034456253 0.36119306
0.041836977 -0.0035118163 0.36812824
0.061320588 -0.0039003193 0.40885073
0.062177464 -0.0038992167 0.40873903
0.065061569 -0.0034094155 0.3573966
0.065314442 -0.003344208 0.35055411
0.075008273 -0.0036720037 0.3849203
0.13234045 -0.0036877692 0.38657141
0.20584908 -0.0055289567 0.57958204
0.1733125 -0.0036981404 0.38765955
0.17505002 -0.0034544766 0.36211568
0.1728473 -0.0033372343 0.34982544
0.18734333 -0.0033158362 0.34758866
0.19040418 -0.003356725 0.35187221
0.19461834 -0.0034041405 0.35684103
0.19809808 -0.0033984482 0.35624099
0.18011555 -0.0026086569 0.27345282
0.18065304 -0.0025912225 0.27162451
0.18368918 -0.0025767982 0.27011329
0.17431962 -0.0023283064 0.24406224
0.17479029 -0.0023275912 0.24399108
-0.10748881 -0.0023603737 0.31076747
-0.1231342 -0.0031979382 0.42104632
-0.094951838 -0.0031884313 0.41978723
-0.091463566 -0.0031608343 0.41616291
-0.018684715 -0.0029087067 0.38295823
0.052581221 -0.003326416 0.43795818
0.050782844 -0.0028121471 0.37024873
0.061007887 -0.0028840601 0.3797102
0.063126117 -0.0027299821 0.35942453
0.070163205 -0.0027347505 0.36005676
0.076025695 -0.0025934875 0.34145433
0.15773162 -0.0045878887 0.60404688
0.1662273 -0.0046817362 0.6164003
0.19143981 -0.0043560565 0.57352537
0.1758332 -0.0026456714 0.34833461
0.16814737 -0.0024983287 0.3289302
0.16887555 -0.0024986863 0.32897919
0.17306584 -0.0025084913 0.33026654
0.19169965 -0.0026802123 0.35287249
0.19854763 -0.0027014911 0.35568231
0.18220882 -0.002047956 0.26963133
0.17540354 -0.0018878579 0.248555
0.17597482 -0.0018602312 0.24491382
-0.1210593 -0.0018308163 0.3239761
-0.11624867 -0.0018098056 0.32026136
-0.10459843 -0.0017411709 0.30812299
-0.084855735 -0.0019709468 0.34878552
0.005220592 -0.0022362173 0.39572376
0.031198218 -0.0024865866 0.44002563
0.038176417 -0.0020526946 0.36324418
0.062204406 -0.0021311343 0.37712383
0.064258486 -0.0021733642 0.38459337
0.06185402 -0.0020146966 0.35652047
0.068801984 -0.0019735396 0.34924072
0.068907753 -0.00195539 0.34602344
0.069200695 -0.0018636584 0.32979631
0.072355926 -0.0018723607 0.33133346
0.073580667 -0.0018855929 0.33367622
0.14628004 -0.0034478605 0.61013204
0.10843629 -0.0024467707 0.43298632
0.15897226 -0.0034123659 0.60385519
0.16341136 -0.0034794211 0.61571807
0.126789 -0.0022322237 0.3950175
0.1924918 -0.0031973422 0.56580824
0.1335994 -0.0021647513 0.38307393
0.20578709 -0.0033140779 0.5864659
0.17195657 -0.0020191073 0.35729629
0.17227447 -0.0019875169 0.35170895
0.17228527 -0.0019704401 0.34868795
0.16885193 -0.0018588006 0.32893318
0.17228737 -0.0018655658 0.33012754
0.19177631 -0.0019870698 0.35162997
0.19549453 -0.002009809 0.35566008
0.20723096 -0.001976788 0.34980762
0.17996527 -0.0015389919 0.27234083
0.181694 -0.0015388429 0.27231461
0.18218899 -0.0015381277 0.27218455
0.18054815 -0.0014590323 0.25819105
0.17709507 -0.0013764501 0.24357474
-0.10809585 -0.0011236966 0.3031559
-0.1377804 -0.0018125772 0.48899668
-0.03238681 -0.0015251338 0.41145235
-0.0088996887 -0.0015705228 0.42369324
-0.0051554739 -0.0015342236 0.41390735
0.03981176 -0.0013233423 0.35702258
0.068699822 -0.0013360977 0.36045408
0.067928463 -0.0012921691 0.34858859
0.069240391 -0.0012357533 0.33338135
0.07581538 -0.0012501776 0.33727193
0.16393897 -0.0022713542 0.61277121
0.1343566 -0.0015940368 0.43004948
0.19788158 -0.0021834075 0.5890525
0.13693368 -0.0015013814 0.40504593
0.19595672 -0.0021350086 0.57599312
0.12984186 -0.0013884902 0.37459558
0.20885061 -0.0021928251 0.59159297
0.16837457 -0.0013025999 0.35141402
0.17337561 -0.0013063252 0.35241914
0.19829187 -0.0013167262 0.35522413
0.19946812 -0.0012947917 0.34930658
0.20133194 -0.0012971461 0.34995079
0.18086907 -0.00103122 0.27820784
0.17921457 -0.0010184646 0.27475959
0.17935976 -0.0010126531 0.27319175
0.18256673 -0.0010109842 0.27274883
0.17509514 -0.00092813373 0.25039309
0.17347211 -0.00090569258 0.24433798
0.17531458 -0.00090444088 0.24399489
0.1771996 -0.0009033978 0.2437185
-0.12224612 -0.00045442581 0.25783646
-0.10211268 -0.00040709972 0.23099148
-0.090064734 -0.00036796927 0.20878488
-0.086302489 -0.00035792589 0.20308208
-0.10563725 -0.00053495169 0.30353868
-0.091830552 -0.00065940619 0.37416732
-0.034915268 -0.00055548549 0.3151949
-0.029007196 -0.00077587366 0.44024152
0.039576709 -0.00067743659 0.38438481
0.054395691 -0.00074538589 0.42295295
0.052237004 -0.00069275498 0.39310229
0.054926708 -0.00069493055 0.39431614
0.064981967 -0.00062173605 0.35281706
0.065738007 -0.00062179565 0.35282755
0.068110839 -0.00062978268 0.35736388
0.073676959 -0.00065204501 0.36997217
0.078070521 -0.00068357587 0.38787168
0.073673308 -0.00058314204 0.33088905
0.099562831 -0.00073844194 0.4190107
0.12428854 -0.00067791343 0.38466567
0.19657539 -0.0010445714 0.59270626
0.17451826 -0.0008765161 0.49735373
0.16484828 -0.00065606833 0.37228656
0.16762915 -0.00063642859 0.36113524
0.17162395 -0.00062292814 0.35346562
0.17398052 -0.00062057376 0.35211897
0.17539792 -0.00061762333 0.35043985
0.18600005 -0.00051262975 0.29088169
0.1795516 -0.00048196316 0.27348399
-0.12058261 4.6044588e-05 0.25318652
-0.095986366 4.0084124e-05 0.22032899
-0.098310232 4.1902065e-05 0.23018026
-0.11892414 5.7905912e-05 0.3182621
-0.11889601 5.8233738e-05 0.32001722
-0.10606673 5.5134296e-05 0.30291224
-0.037067592 5.8621168e-05 0.32219166
-0.035056278 7.8946352e-05 0.43359262
0.063492909 7.930398e-05 0.43575424
0.064298585 7.5817108e-05 0.41682619
0.066614091 6.9856644e-05 0.38395703
0.064150676 6.4879656e-05 0.35657948
0.065054268 6.4283609e-05 0.3532095
0.064733148 6.1780214e-05 0.33964169
0.076357812 6.0647726e-05 0.33334601
0.098769322 7.429719e-05 0.40832525
0.10914931 6.7263842e-05 0.36959374
0.10771243 6.5892935e-05 0.36210752
0.12512708 7.5489283e-05 0.41469258
0.1278989 7.6591969e-05 0.42089742
0.15786168 9.0748072e-05 0.49846441
0.2037165 0.00010967255 0.60258788
0.1391657 7.3522329e-05 0.40398616
0.15918028 7.0542097e-05 0.38754594
0.16697386 6.455183e-05 0.35482186
0.17076343 6.4283609e-05 0.35324818
0.17160638 6.4283609e-05 0.35342938
0.17655227 6.3925982e-05 0.3512463
0.17787784 6.3300133e-05 0.347965
0.16925982 5.9753656e-05 0.32836068
0.17043397 5.9664249e-05 0.32791907
0.19842258 6.3985586e-05 0.35142171
0.20030141 6.3598156e-05 0.34945786
0.18311946 5.1110983e-05 0.28074634
0.17980617 4.9501657e-05 0.27210003
0.18254486 4.8696995e-05 0.26758951
0.17728862 4.4226646e-05 0.24312621
0.17834729 4.4375658e-05 0.24386322
-0.11057377 0.00052675605 0.24773598
-0.097461045 0.00048038363 0.22593075
-0.11827493 0.00067687035 0.31834555
-0.11841977 0.00068166852 0.32057953
-0.10373828 0.00064575672 0.3036772
-0.10571927 0.00066637993 0.31339788
-0.14005172 0.0011073351 0.52075976
0.022820622 0.0008058846 0.37899041
0.038809597 0.00081846118 0.38492483
0.064322606 0.00089910626 0.42284089
0.066090643 0.00082010031 0.3856914
0.067960024 0.00074154139 0.34875059
0.071289867 0.00071516633 0.3363272
0.07676813 0.00070604682 0.3320393
0.085323259 0.0007635057 0.35908341
0.16546017 0.0012360215 0.58130497
0.11651424 0.00076675415 0.36060458
0.13683879 0.00081923604 0.38527882
0.13616112 0.00081029534 0.38107753
0.21671325 0.0012595356 0.59234732
0.21761692 0.0012574792 0.59136277
0.18508001 0.001010716 0.47533721
0.16303805 0.00086659193 0.40754169
0.15687552 0.00080370903 0.37800056
0.15846892 0.00076839328 0.3613683
0.16183618 0.00075882673 0.35687125
0.16556185 0.0007480979 0.35182136
0.17130533 0.00075682998 0.35594308
0.17872067 0.00075286627 0.35405475
0.17701405 0.00074249506 0.34919542
0.17665637 0.00070530176 0.33170664
0.19694141 0.00075304508 0.35416096
0.20121014 0.00074365735 0.34973907
0.20268685 0.00074359775 0.34970748
0.21568325 0.00075241923 0.35386187
0.19888157 0.00065913796 0.30999064
0.18192694 0.00057423115 0.27006835
0.18074664 0.00055640936 0.26167417
0.18303145 0.00054982305 0.25858086
0.17573255 0.00052005053 0.24457669
0.17595974 0.00051763654 0.2434445
0.1765275 0.00051778555 0.24351001
-0.10848194 0.0010186136 0.25023919
-0.11802524 0.0013006032 0.31951153
-0.082003176 0.0014092028 0.34618443
0.065721571 0.0014358461 0.35273921
0.069502249 0.0014360845 0.3527953
0.074141085 0.0014994144 0.36834937
0.074025407 0.001481384 0.36391068
0.082383811 0.0013623536 0.33467126
0.16862372 0.0024483502 0.60145217
0.10802388 0.0014782548 0.36315453
0.1176877 0.0014826655 0.36423635
0.1398977 0.0016951859 0.41644651
0.18532503 0.0019809902 0.48665196
0.15980534 0.0015204847 0.37351835
0.15702942 0.0014866292 0.36520553
0.15744238 0.0014831722 0.36435479
0.16108119 0.0014391243 0.35354012
0.16720456 0.0014463663 0.35531211
0.176773 0.0014255643 0.35019642
0.17591584 0.0014067292 0.34557188
0.17667204 0.0014068782 0.34560627
0.17883956 0.0014122427 0.34694511
0.17155707 0.0013381541 0.32872826
0.17308411 0.0013390779 0.32895964
0.17476664 0.0013411939 0.32948071
0.19192545 0.0014213622 0.34916699
0.1938021 0.0014297068 0.3512153
0.20671517 0.0014412105 0.35404664
0.2068131 0.0014210343 0.34910238
0.18103276 0.0011372566 0.27937812
0.17987712 0.0011044741 0.27132988
0.18191072 0.0011027455 0.27090389
0.17772992 0.0010345876 0.25416094
-0.11092338 0.0013641715 0.22679812
-0.11512876 0.0014540255 0.24173504
-0.12403494 0.0016635656 0.2765708
-0.12041786 0.0019721687 0.32788593
-0.11753368 0.0019591749 0.32571948
-0.11013818 0.0018804371 0.31263155
-0.10822707 0.0018705726 0.31098032
-0.13632503 0.002595216 0.43146437
-0.15474293 0.0030705333 0.51047558
-0.1407907 0.0031488836 0.52350742
-0.085880697 0.0020687282 0.34393388
-0.10827422 0.0031797588 0.52863914
0.035742134 0.0024430454 0.40616184
0.043364108 0.0026430488 0.43941277
0.063264564 0.002433151 0.40451819
0.066218793 0.0022957623 0.38167846
0.074306056 0.0020669103 0.34362692
0.081320882 0.0021156371 0.35173076
0.11588062 0.0022777617 0.37868351
0.12269621 0.002269119 0.37724203
0.13194524 0.0023929775 0.39783603
0.13879532 0.0024851561 0.41316479
0.18459789 0.0029826462 0.49587494
0.18378609 0.0029028654 0.48261088
0.15224926 0.0022891462 0.38057321
0.15816101 0.0023282766 0.38707852
0.16591126 0.0021303594 0.35417259
0.17819689 0.0020793676 0.34569842
0.18031785 0.0020203292 0.33588576
0.19721185 0.0021332204 0.35464728
0.20619155 0.0022048652 0.36656857
0.20360462 0.0020975173 0.34871912
0.21836352 0.002139926 0.35576427
0.20477971 0.0019327402 0.32132488
0.18139994 0.0016300678 0.27100575
0.17576742 0.001462698 0.24317843
-0.11088908 0.0018125176 0.22772318
-0.10908625 0.0017988384 0.2260049
-0.11015108 0.0018326342 0.23025018
-0.091957569 0.0019699931 0.24751049
-0.12113664 0.0026253164 0.32984304
-0.10896376 0.0024767816 0.31118578
-0.10749292 0.0024583638 0.30887067
-0.13808995 0.0034786165 0.43705028
-0.1358996 0.0039283037 0.49355322
0.03554967 0.0031391382 0.39439559
0.065701157 0.0030517578 0.38341844
0.065657601 0.0029754937 0.37383819
0.070879146 0.0028636456 0.3597846
0.074264169 0.002733469 0.34343296
0.086325042 0.0027435422 0.3446961
0.089260399 0.0027660131 0.34751916
0.11091135 0.003011018 0.3782981
0.11881609 0.0030903816 0.38827622
0.18288368 0.0039101839 0.49127036
0.18293974 0.0038669407 0.48584181
0.18297026 0.0038241744 0.48046833
0.16562651 0.0031281412 0.39301461
0.17598574 0.0031330884 0.39363885
0.15988761 0.0027930439 0.3509205
0.20841824 0.0028516054 0.35827494
0.21238701 0.0028029084 0.35215849
0.21417956 0.0027205348 0.34180611
0.19051644 0.002363503 0.29695219
0.18056935 0.0021609068 0.27149874
0.18335843 0.0020617843 0.2590428
0.17978077 0.0020094216 0.2524637
0.1764293 0.0019485652 0.24481809
-0.10720319 0.0022392869 0.22610855
-0.12296596 0.002702564 0.27288669
-0.099303424 0.0022685826 0.22906667
-0.10709333 0.0030475557 0.30772239
-0.092089266 0.0051516891 0.52018613
0.069758713 0.0038401186 0.38775152
0.064992234 0.0035357475 0.35701573
0.0679809 0.0035324395 0.35668194
0.069267288 0.0035593808 0.35940099
0.074586019 0.0037092566 0.37453723
0.084484622 0.0041132569 0.41532832
0.088489048 0.0034405887 0.3474071
0.089275986 0.0034138858 0.34471148
0.095043406 0.0034904182 0.35243791
0.09951736 0.0036259592 0.36612606
0.14315367 0.0042203069 0.4261387
0.18365324 0.0048030913 0.48498398
0.14882892 0.0036647916 0.3700465
0.16922581 0.0040382743 0.40775925
0.17343307 0.0037347674 0.37711173
0.16730505 0.0035209954 0.35552567
0.17613059 0.003656894 0.36924887
0.1715135 0.0033793449 0.34122187
0.17792514 0.0034614801 0.34951901
0.19611393 0.0035334826 0.35678697
0.19675738 0.0035042167 0.35382998
0.21503827 0.003607899 0.36430103
0.21480867 0.0033950806 0.34281009
0.19413617 0.0030067861 0.30360562
0.17795646 0.0024601519 0.2484107
0.17712346 0.0024126768 0.24361378
-0.10950211 0.002699852 0.22787553
-0.10139734 0.0034948885 0.2949788
-0.097107947 0.0057989359 0.48944348
0.02921322 0.0044768155 0.37785649
0.030019999 0.0043594241 0.36794752
0.03846024 0.0043356717 0.36594456
0.046800807 0.0043114424 0.36389893
0.07564494 0.0043152571 0.36421841
0.07360138 0.0041558743 0.35076898
0.086948946 0.0045396388 0.38315767
0.082599074 0.0040457845 0.34147549
0.087709732 0.0041851997 0.35323989
0.088337332 0.0040081143 0.3382954
0.091301598 0.0040758848 0.3440156
0.093525343 0.0039523244 0.33358896
0.096946523 0.0040053427 0.33806026
0.12404809 0.0040888786 0.34511214
0.18415718 0.0058948994 0.49754792
0.15942512 0.0049049854 0.41399342
0.14577639 0.0044357777 0.37439442
0.16278616 0.0046955943 0.39632487
0.16152686 0.0045182407 0.38135242
0.15821588 0.0043813884 0.36980331
0.15751246 0.0042764843 0.36094636
0.15989394 0.004157871 0.35093439
0.16041943 0.0041520298 0.35044378
0.18022197 0.0044764578 0.37782621
0.17520297 0.0040103793 0.33848667
0.17298919 0.003911227 0.33012033
0.19990951 0.004163295 0.35139477
0.20939213 0.0041428804 0.34967119
0.20884857 0.0040314198 0.34026217
0.21495603 0.0040923059 0.34540153
0.18292376 0.0033557117 0.2832306
0.18200751 0.0033169389 0.27995896
0.17959201 0.003061533 0.25840336
0.18152288 0.0030292571 0.25567758
0.17887071 0.0028809011 0.24315768
0.17972901 0.0028863251 0.24361658
-0.10802567 0.0032448471 0.23526734
-0.10616076 0.0071488023 0.51832038
0.039774507 0.0048270226 0.34998024
0.049492419 0.0049004555 0.35530376
0.049590856 0.0048359334 0.35063022
0.082641527 0.0047121346 0.34165096
0.087526061 0.0048618019 0.3525002
0.12664813 0.0054786205 0.39722365
0.14027642 0.0057228804 0.41493386
0.14510944 0.0056013167 0.40612131
0.18482935 0.0068478584 0.49649674
0.15877447 0.0057504475 0.41693169
0.14102462 0.0049954057 0.3621906
0.16310135 0.0048913658 0.35464656
0.1700239 0.0049831569 0.36130321
0.17077631 0.0047261715 0.34266937
0.17304476 0.0047482252 0.3442682
0.17562866 0.0047784746 0.34646231
0.17801364 0.0047828555 0.34678072
0.19918913 0.0049980283 0.36238152
0.19330601 0.0047945082 0.34762341
0.1804527 0.0035700798 0.25884581
0.17759494 0.0033590496 0.24354637
-0.11040533 0.0036155581 0.22975516
-0.13036156 0.0073364377 0.46620303
-0.12282944 0.0071872175 0.45672137
-0.1002447 0.0078662038 0.49986821
-0.093054175 0.0075432062 0.47933918
-0.096284211 0.0080716014 0.51291913
-0.084994555 0.0080406666 0.51095456
0.034203857 0.0055749118 0.35426378
0.045264557 0.0052755177 0.33523989
0.049882978 0.0052338541 0.3325913
0.082462937 0.005317837 0.33792681
0.089763165 0.0055926442 0.35539144
0.096625611 0.0052630901 0.33444846
0.14147857 0.0068006217 0.43215054
0.13205484 0.0062256753 0.39561701
0.13664588 0.0063606501 0.40419477
0.15276021 0.0067684054 0.43010658
0.15015557 0.0061703026 0.39209855
0.13854602 0.0055688918 0.35388225
0.16510096 0.0061650872 0.39176744
0.15446121 0.0056813061 0.3610273
0.15847683 0.005605042 0.35617834
0.18210986 0.0060350299 0.3835026
0.19738042 0.0056729019 0.36049277
0.1959065 0.0055869818 0.35502905
0.20392013 0.0055572093 0.35313755
0.20645031 0.0055847764 0.35489208
0.20311327 0.0053376257 0.33918589
0.20715868 0.0053484738 0.33987594
0.22000474 0.0055063963 0.34990889
0.1777091 0.0040993989 0.26050097
-0.11095825 0.004252851 0.24053454
-0.12934881 0.0052496493 0.29690969
-0.13334423 0.0054653883 0.30911392
-0.1340377 0.005548805 0.31383133
-0.10527623 0.0083877742 0.47439736
-0.11057186 0.0090718567 0.5130859
-0.087085605 0.0088039041 0.49793333
0.033985063 0.006223619 0.35199779
0.037872121 0.0062443018 0.3531667
0.049277052 0.0058090687 0.32855123
0.053608149 0.0056729019 0.32085007
0.088701539 0.0061059594 0.34534347
0.091386281 0.0061877668 0.34997147
0.098542601 0.0060306787 0.34108353
0.1388599 0.0073553324 0.41600376
0.13366267 0.0070349872 0.39788598
0.170195 0.0072137117 0.40799338
0.16214716 0.0064744651 0.36618638
0.16372785 0.0062945187 0.35600883
0.15941909 0.0060446262 0.34187341
0.17657134 0.0063736439 0.3604812
0.17875239 0.0061059892 0.34534407
0.20281169 0.0062329173 0.35252279
0.19442202 0.0056005716 0.3167581
0.21211889 0.006026417 0.34084272
0.18363068 0.0049940646 0.28245562
0.18137506 0.0048529506 0.27447426
0.18228446 0.0048615634 0.27496111
0.18440083 0.0048553944 0.27461213
-0.11027628 0.0046699047 0.23795372
-0.11696699 0.0050227046 0.25593185
-0.14247259 0.0062945783 0.32073987
-0.13275969 0.0093176961 0.47477919
-0.11695439 0.0099592507 0.50747114
-0.11197242 0.010403335 0.53009981
0.031780362 0.0069194436 0.35257822
0.052357048 0.0063952506 0.32586777
0.05361639 0.0062977374 0.32089937
0.16240925 0.0071634948 0.3650164
0.16020815 0.006711781 0.34199804
0.19731835 0.0070177615 0.3575877
0.1965341 0.0069628954 0.35479212
0.20563182 0.0069372058 0.35348511
0.19771999 0.0064798594 0.33017945
0.18225813 0.0055937767 0.28502977
0.18094656 0.0054984093 0.28016925
0.17795247 0.0051516891 0.26250249
0.17819971 0.0050630569 0.25798678
-0.1219919 0.0057307184 0.26568425
-0.13479781 0.0067068934 0.31094289
-0.13565838 0.0068510473 0.31762594
-0.10353023 0.010790378 0.50025672
0.036917582 0.0074256957 0.34426534
0.038751349 0.0070880949 0.32861674
0.041077018 0.0071260333 0.33037466
0.047041446 0.0069636703 0.32284719
0.05227159 0.0068354905 0.3169046
0.16398516 0.0075163841 0.34847099
0.17707211 0.0078661442 0.36468631
0.17380027 0.0073952377 0.34285545
0.17790952 0.0074138343 0.34371579
0.16913235 0.0069902837 0.32408202
0.16958061 0.0069518983 0.32230091
0.19988339 0.0076940954 0.35670942
0.19669166 0.0074855983 0.34704244
0.20323917 0.0074536204 0.34556311
0.20725167 0.007232815 0.33532506
0.18321642 0.0061802864 0.28652847
0.17995349 0.0060099661 0.27863163
0.18133667 0.0059382617 0.2753067
0.18277931 0.0058711767 0.27219737
0.17901208 0.0056778789 0.26323563
0.18013656 0.0056778491 0.26323456
0.1779741 0.0052337348 0.24264383
0.17849341 0.0052337348 0.24264479
-0.11846066 0.0056704879 0.24115533
-0.10434774 0.0052460134 0.22310323
-0.13484031 0.0073137879 0.31104094
-0.11097366 0.011322439 0.48152035
-0.1064319 0.011277407 0.47960502
-0.10270938 0.011433601 0.48624665
0.05121994 0.0073976219 0.31460547
0.057475835 0.0075121522 0.31947762
0.18103506 0.0078979433 0.33588451
0.20263384 0.0085356236 0.36300248
0.20154375 0.0083932877 0.35694951
0.20440349 0.0083233416 0.3539747
0.20503634 0.0082877576 0.35246152
0.19183107 0.007479161 0.31807476
0.20788744 0.0078546405 0.33404338
0.18072504 0.0066236258 0.2816906
0.17978847 0.0064601898 0.27473927
0.17590047 0.0060065985 0.25544852
-0.14751816 0.008256048 0.32429659
-0.11627194 0.013211519 0.51894838
-0.10424849 0.01256448 0.49353319
0.042708114 0.0080525875 0.31630617
0.047509402 0.0081808567 0.32134485
0.048601255 0.0081337094 0.31949246
0.049458027 0.0080508888 0.31623822
0.17837493 0.0093116164 0.36575949
0.17461967 0.0088067353 0.3459304
0.17809805 0.0087236166 0.3426649
0.19663894 0.0092149973 0.36196452
0.20334899 0.0094550252 0.37139374
0.20486221 0.0089654624 0.35216212
0.20476142 0.0089282095 0.35070032
0.20487531 0.0088682771 0.34834504
0.20297444 0.008660078 0.34016818
0.18318738 0.0066896081 0.26276839
0.17967878 0.0063286722 0.24858987
0.17977853 0.0061680079 0.24228001
-0.11930957 0.0067140162 0.24501562
-0.12817496 0.0080622733 0.29421508
-0.12207341 0.0077931583 0.2843954
-0.12364718 0.0079331398 0.28950334
-0.11076966 0.013049632 0.47621888
0.047275543 0.0087623298 0.31976324
0.047707379 0.0087163448 0.31808567
0.050876185 0.0085631311 0.31249398
0.054711312 0.008641392 0.31535053
0.061588168 0.0085666776 0.31262338
0.17710438 0.0096963644 0.35384923
0.17685199 0.0096005797 0.3503527
0.1762284 0.009486407 0.34618586
0.17854014 0.009452045 0.34493399
0.16883889 0.0088291168 0.32220012
0.17461051 0.0089484453 0.32655454
0.18779853 0.0095102489 0.34705687
0.2043865 0.0097713172 0.35658497
0.20530099 0.0091976821 0.33565116
0.18267435 0.0075997412 0.27733749
0.18255639 0.0070461035 0.25713331
0.17631954 0.0066064894 0.2410906
-0.11854726 0.0077205896 0.2630806
0.052332789 0.0091919303 0.31321687
0.061099499 0.0091017187 0.31014276
0.067551136 0.009352535 0.31868875
0.16467766 0.01075834 0.36659265
0.18274972 0.011094421 0.37804365
0.17864087 0.01029855 0.35092491
0.17782965 0.010082453 0.34356135
0.21055412 0.010985225 0.37432444
0.20405041 0.010486543 0.35733098
0.20408872 0.010410577 0.35474259
0.20424339 0.010341644 0.35239303
0.20435652 0.010309368 0.35129285
0.20495403 0.010264069 0.3497498
0.2050153 0.0099760294 0.33993554
0.20936851 0.0099757612 0.33992559
0.18758561 0.0084677339 0.28853899
0.18468344 0.0082018673 0.27948087
0.17756909 0.0076628625 0.26111364
0.18018082 0.0070852637 0.24143124
-0.11367485 0.0075022876 0.23975825
-0.10630757 0.015135705 0.48370355
0.047373146 0.0097447038 0.31141919
0.053796872 0.0098238289 0.31394756
0.055154294 0.0098265409 0.31403524
0.064602003 0.0098342896 0.31428266
0.068110108 0.0096648633 0.30886805
0.18459508 0.011896312 0.38018024
0.17709841 0.010886043 0.34789491
0.17348608 0.010317445 0.32972366
0.20904392 0.011900395 0.3803103
0.21835794 0.012055576 0.3852703
0.20217767 0.01103738 0.35273117
0.20307258 0.01100418 0.35166979
0.20963693 0.010613501 0.3391844
0.18594494 0.0087484121 0.27958131
0.18477993 0.008168608 0.26105106
0.18393986 0.0080826283 0.2583043
0.17922032 0.0075576901 0.24152762
0.18012607 0.0075523853 0.24135792
-0.11915949 0.0077910125 0.23441815
-0.10559243 0.016447872 0.49488801
-0.10441577 0.016768545 0.5045355
-0.09860009 0.016880572 0.50790721
0.054557562 0.011437744 0.34414184
0.057278454 0.010335982 0.31099111
0.058177441 0.010144979 0.30524528
0.067940801 0.010239869 0.30810016
0.070219368 0.010188311 0.30654824
0.16495854 0.01226303 0.36897361
0.16266422 0.011333913 0.34101731
0.18662852 0.012945652 0.38951188
0.17631771 0.011911631 0.35839963
0.17656958 0.011724859 0.35278088
0.17606714 0.01116693 0.33599401
0.18930912 0.01158163 0.348472
0.19692506 0.012000352 0.36107045
0.21491864 0.012795985 0.38500971
0.20208539 0.011545688 0.34738874
0.20630084 0.011328638 0.34085912
0.1961792 0.0097098649 0.29215264
0.17760313 0.0087072849 0.26198721
0.17511615 0.0079348981 0.23874736
0.17731786 0.0079880953 0.24034834
0.17800686 0.0079959631 0.24058533
-0.098673731 0.0081276298 0.23103142
0.16198891 0.012109935 0.3442288
0.17854273 0.013168067 0.37430584
0.17083278 0.012163341 0.34574831
0.17218161 0.012154222 0.3454892
0.17518163 0.012005597 0.34126395
0.17688486 0.011826843 0.33618325
0.17787853 0.011610329 0.33002806
0.20356844 0.012088656 0.34362531
0.20628347 0.011581361 0.3292048
0.20431323 0.011431754 0.32495213
0.20283192 0.011272252 0.3204177
0.20279914 0.01097402 0.31194007
0.20242363 0.01077652 0.30632699
0.21061991 0.011069685 0.31465948
0.17668048 0.0084250271 0.23948449
0.17948779 0.0084126294 0.23913294
-0.097788393 0.0084575415 0.22781843
0.051713973 0.011639297 0.31352389
0.052576423 0.011682034 0.31467509
0.056744292 0.011994362 0.32308811
0.058099359 0.011445135 0.30829293
0.064988643 0.011616528 0.31290984
0.17787087 0.013843536 0.37289727
0.17730382 0.012510121 0.33697963
0.18275081 0.012488574 0.33639985
0.18283272 0.012445182 0.3352316
0.19688784 0.012564838 0.33845401
0.20515081 0.012583584 0.33895904
0.20597196 0.012545317 0.33792895
0.20570582 0.012063801 0.32495773
0.2035943 0.011512399 0.31010467
0.22259052 0.012424767 0.3346805
0.22154653 0.012287498 0.3309834
0.1838747 0.0097024441 0.26135051
0.17825516 0.0088671446 0.23885101
0.22513497 0.010917723 0.29408693
-0.11961931 0.0092716515 0.2373184
0.058178037 0.012060851 0.30871046
0.061994091 0.012162238 0.3113063
0.06646274 0.012502223 0.32000744
0.075342402 0.011957556 0.30606663
0.17230779 0.013113916 0.3356654
0.18106762 0.013229787 0.33863062
0.18107153 0.013125151 0.33595222
0.19558734 0.013135552 0.33621842
0.19662513 0.013156921 0.33676511
0.20776263 0.013042718 0.33384275
0.20798975 0.01301232 0.3330639
0.20703021 0.012864232 0.32927346
0.20681767 0.012764215 0.3267141
0.20784763 0.012656868 0.32396585
0.20808214 0.012382388 0.31694025
0.22998527 0.013130069 0.33607864
0.22877577 0.012979954 0.33223587
0.18127197 0.010158628 0.26002091
0.18415618 0.01022619 0.26175064
0.18491893 0.010175824 0.26046103
0.18516448 0.010158777 0.26002407
-0.11970446 0.0097815096 0.23849875
0.05928129 0.012615025 0.30758744
0.067986727 0.013288587 0.32401079
0.07182163 0.012623727 0.30779892
0.16391169 0.013547033 0.33031183
0.16725332 0.013589054 0.33133727
0.17286295 0.013696879 0.33396584
0.17896083 0.013893247 0.33875281
0.18255889 0.013728231 0.33472961
0.18272898 0.013634145 0.33243597
0.19334379 0.013681382 0.33358735
0.20626053 0.013734341 0.33487952
0.22970644 0.013853371 0.33778119
0.18440765 0.010749787 0.26210803
0.23624064 0.013248116 0.3230238
0.20012969 0.011190355 0.2728501
0.17672041 0.009683907 0.23611832
0.21442208 0.011519551 0.28087717
-0.1116671 0.013372779 0.31130534
0.059671298 0.013300031 0.30961114
0.081286758 0.016309172 0.3796615
0.17260469 0.01438418 0.33484966
0.18321329 0.01420784 0.3307448
0.21565688 0.01406467 0.32741183
0.22945318 0.014403582 0.3353011
0.22961301 0.014368743 0.33448994
0.2027213 0.012568533 0.29258239
0.19070217 0.010761082 0.25050724
0.22594097 0.012643069 0.29431796
0.22758266 0.0125947 0.29319137
0.05801861 0.014310449 0.31870818
0.065719217 0.014506638 0.3230772
0.089541808 0.014019996 0.31223923
0.17247912 0.015024304 0.33460605
0.17392799 0.014964342 0.33327121
0.18322837 0.014795065 0.32950068
0.19211575 0.014883399 0.33146846
0.20106088 0.0149692 0.33337867
0.20193887 0.014928728 0.33247793
0.2031426 0.014912784 0.33212239
0.21314776 0.014867932 0.33112377
0.1765039 0.011473715 0.25553173
0.22719041 0.01314202 0.29268605
-0.10035634 0.012951851 0.27647847
0.059700966 0.014673948 0.31323898
0.063899055 0.014871925 0.31746489
0.071455359 0.014613301 0.31194413
0.1829733 0.015414238 0.32904202
0.19701019 0.015467197 0.3301726
0.20375374 0.015497029 0.33080941
0.20944223 0.015499413 0.33086014
0.21521834 0.015559077 0.33213478
0.21675082 0.015218168 0.3248561
0.22574773 0.015599966 0.33300662
0.18527909 0.012526959 0.26740855
0.18294978 0.012256056 0.26162553
0.18382037 0.012129009 0.25891364
0.19599754 0.012061059 0.25746328
0.22098213 0.013522625 0.2886622
0.05937551 0.015548408 0.31867892
0.07505475 0.015138924 0.31028622
0.077015415 0.015133202 0.31016982
0.077692434 0.015135974 0.31022602
0.080765277 0.015341818 0.31444508
0.083133712 0.015040755 0.30827457
0.093766816 0.015055358 0.3085736
0.19693837 0.016045809 0.32887423
0.1991348 0.016109765 0.33018512
0.21824153 0.015907824 0.32604593
0.21839654 0.015868425 0.32523894
0.24435934 0.01630199 0.33412486
0.2260631 0.01420936 0.29123378
0.068989247 0.01557067 0.30690527
0.075806513 0.01576063 0.31064922
0.080969423 0.016127735 0.31788516
0.083415017 0.015945852 0.3142997
0.085266843 0.015791118 0.31125075
0.088696621 0.015929192 0.31397212
0.090294458 0.015856296 0.31253451
0.19459757 0.016605467 0.32730174
0.21045819 0.016810715 0.33134639
0.22026238 0.01691094 0.33332235
0.22849631 0.017209142 0.33920002
0.21928814 0.016359895 0.32246113
0.19951752 0.014791936 0.291556
0.18456265 0.013228744 0.26074415
0.063054472 0.016502649 0.31326872
0.065907866 0.016890705 0.32063556
0.078354746 0.016481668 0.31287062
0.087139055 0.016498923 0.31319797
0.090335786 0.016471475 0.31267744
0.19496806 0.01709035 0.324426
0.23110491 0.018072635 0.34307247
0.18480586 0.013712406 0.26030177
0.066438302 0.017840564 0.32661217
0.069333792 0.016847849 0.30843806
0.086617105 0.017136991 0.31373185
0.096218437 0.016938508 0.31009811
0.099799164 0.016871572 0.30887252
0.20259839 0.017249137 0.31578404
0.21278489 0.017819524 0.32622737
0.22241947 0.017698437 0.32401067
0.2032243 0.015972167 0.29240638
0.069268852 0.01759854 0.31110728
0.070008248 0.017451376 0.30850518
0.070934221 0.017517179 0.30966902
0.072911009 0.017675489 0.31246769
0.074987143 0.017536312 0.31000674
0.098253563 0.020774543 0.36725235
0.091975383 0.017617404 0.31144053
0.09314476 0.017586827 0.31090009
0.097620733 0.017555267 0.31034195
0.19879892 0.017412096 0.30781102
0.084547624 0.018491 0.31602216
0.087336831 0.018800616 0.3213138
0.094533555 0.020191073 0.34507722
0.090936594 0.018281758 0.31244564
0.091496632 0.018260241 0.31207806
0.21207485 0.018717766 0.31989753
0.21107814 0.018510431 0.31635416
0.20979519 0.016933352 0.28940094
0.084338129 0.019526094 0.32297993
0.07500194 0.017084926 0.2826001
0.081921086 0.017665207 0.2921986
0.083800897 0.017933816 0.29664207
0.098808087 0.018735677 0.30990523
