# .PCD v0.7 - Point Cloud Data file format
VERSION 0.7
FIELDS x y z
SIZE 4 4 4
TYPE F F F
COUNT 1 1 1
WIDTH 1409
HEIGHT 1
VIEWPOINT 0 0 0 1 0 0 0
POINTS 1409
DATA ascii
0.019131843 -0.093898818 1.7305666
0.087742418 -0.096124731 1.7715905
0.22512572 -0.089058161 1.6413519
0.2786015 -0.076732464 1.414189
0.28029919 -0.076371454 1.4075354
0.28598997 -0.07628458 1.4059333
0.31060675 -0.077937312 1.436394
0.36047053 -0.060135409 1.1083034
0.3808189 -0.061120152 1.1264518
0.47686967 -0.071984932 1.3266909
0.59332091 -0.080471925 1.4831076
0.63863671 -0.083495475 1.5388318
0.59471011 -0.070164189 1.2931341
0.59565008 -0.068679161 1.2657651
0.63756126 -0.070317835 1.2959657
1.0219847 -0.10167345 1.8738526
0.87420601 -0.080358237 1.481011
0.88749337 -0.076070651 1.4019912
0.93285757 -0.077347502 1.4255226
0.93225014 -0.073917203 1.3623017
0.98318052 -0.076756656 1.4146351
-0.66540724 -0.10002486 1.9119846
-0.31208739 -0.087976515 1.6816803
-0.30501637 -0.089060396 1.7023978
-0.25924087 -0.087127574 1.6654528
-0.23326291 -0.089451134 1.7098666
-0.21763302 -0.087573476 1.6739755
-0.1330705 -0.093520477 1.7876533
-0.053001259 -0.093818285 1.7933462
0.034492332 -0.092042372 1.7593979
0.038178217 -0.091862991 1.7559701
0.05895374 -0.089224622 1.7055376
0.091565408 -0.092717081 1.7722964
0.1316046 -0.091583505 1.7506273
0.29232231 -0.073632114 1.4074851
0.59312546 -0.076742701 1.4669443
0.60209769 -0.074742764 1.4287153
0.61531711 -0.07269682 1.3896065
0.61266857 -0.071691796 1.370396
0.61517322 -0.065990664 1.2614185
0.63121742 -0.067416303 1.2886693
1.013039 -0.098327935 1.8795484
0.8710016 -0.07804241 1.4917874
0.78624415 -0.068443663 1.3083066
0.86022782 -0.072312228 1.3822546
0.96294582 -0.071602285 1.3686845
1.0012661 -0.071414359 1.3650922
0.94581443 -0.066682063 1.2746342
-0.66034174 -0.097368166 1.9330449
-0.23664342 -0.083452299 1.6567746
-0.22323866 -0.085091628 1.6893204
-0.21279185 -0.08382111 1.6640965
-0.19320972 -0.086192176 1.7111692
-0.14943302 -0.088422403 1.7554456
-0.14276066 -0.086649828 1.7202556
-0.12256584 -0.09075395 1.8017331
-0.082364202 -0.093196362 1.8502234
-0.034085084 -0.090995848 1.8065364
0.0044555138 -0.089559175 1.7780144
0.0082399929 -0.089390025 1.7746559
0.01573546 -0.088877365 1.7644787
0.019072494 -0.086898893 1.7251995
0.057418942 -0.08367198 1.6611359
0.069842204 -0.085850149 1.7043793
0.23630585 -0.082905509 1.6459187
0.29475868 -0.071486413 1.4192159
0.37736285 -0.058828294 1.1679155
0.37291357 -0.055915408 1.1100863
0.38963717 -0.057688851 1.1452949
0.41758868 -0.060311709 1.1973654
0.58654451 -0.073458962 1.4583776
0.63297552 -0.077623941 1.5410641
0.62903923 -0.075955473 1.5079406
0.58791709 -0.069564342 1.3810574
0.60806918 -0.068838194 1.3666416
0.59980088 -0.067577548 1.3416141
0.57765979 -0.064162761 1.2738199
0.60257506 -0.065389246 1.2981696
0.58556277 -0.061834767 1.2276025
0.62534785 -0.064588957 1.2822814
0.85469741 -0.074279092 1.4746594
0.80185926 -0.068425424 1.3584471
0.76708543 -0.06452354 1.2809824
0.89352643 -0.066391431 1.3180652
0.98245913 -0.071643971 1.4223453
0.97683966 -0.066119306 1.3126646
-0.12947939 -0.086722806 1.7908314
-0.093880124 -0.089268282 1.8433954
-0.018452214 -0.086600423 1.7883037
0.074402675 -0.083566882 1.7256613
0.095598847 -0.086046226 1.7768586
0.12454487 -0.085065223 1.7566032
0.21408884 -0.079294272 1.6374321
0.23788396 -0.077917658 1.6090045
0.40319252 -0.06336271 1.3084439
0.40918261 -0.063861169 1.3187362
0.39034116 -0.055562265 1.1473646
0.44682631 -0.061292123 1.2656864
0.46672419 -0.062507831 1.2907902
0.58264124 -0.061350472 1.2668917
0.63866943 -0.063141882 1.3038831
0.76053643 -0.063779674 1.317055
0.8713761 -0.064906664 1.3403264
0.87546402 -0.064574294 1.3334627
0.87609255 -0.062980384 1.3005484
0.93102831 -0.066090815 1.364779
0.95264119 -0.067413837 1.3920997
0.98388404 -0.068978377 1.4244082
0.97610843 -0.065983221 1.3625567
1.0254817 -0.068503149 1.4145955
0.99206746 -0.064557999 1.3331275
-0.66815108 -0.090348534 1.9437432
-0.30232364 -0.079378687 1.707741
-0.27334726 -0.078396097 1.6866008
-0.24508232 -0.077438384 1.6659971
-0.23982953 -0.076895863 1.6543266
-0.23401299 -0.081002101 1.7426672
-0.194198 -0.079944931 1.7199224
-0.12774344 -0.082124844 1.7668209
-0.078168988 -0.085737579 1.8445444
-0.057528097 -0.084375545 1.8152406
-0.033512786 -0.082560889 1.776201
0.025628543 -0.07770814 1.6718005
0.12983213 -0.080276236 1.7270502
0.30155024 -0.06748753 1.451916
0.31987298 -0.070144512 1.5090778
0.41138533 -0.055166926 1.1868525
0.58848399 -0.060035814 1.2916014
0.61532021 -0.059960797 1.2899873
0.6258738 -0.059915323 1.2890093
0.76831758 -0.059851542 1.2876364
0.78012645 -0.059702158 1.2844228
0.87273967 -0.063653752 1.369437
0.84955084 -0.059757918 1.2856225
0.97209889 -0.066028781 1.4205331
0.98965359 -0.066391751 1.428341
0.98912805 -0.065547682 1.4101825
0.97063136 -0.063167021 1.358966
-0.31515619 -0.077417336 1.7382553
-0.26299402 -0.077373639 1.7372735
-0.23473048 -0.073191911 1.6433823
-0.2396128 -0.078226 1.7564124
-0.14857791 -0.079737641 1.7903526
-0.10339133 -0.08341606 1.872945
0.00064592768 -0.078069508 1.7528983
0.091383234 -0.078776412 1.7687707
0.095576048 -0.079117797 1.7764357
0.24186078 -0.070811369 1.5899318
0.28435814 -0.064285703 1.4434099
0.48633161 -0.059203602 1.329302
0.55449355 -0.059200741 1.3292385
0.59196341 -0.061622597 1.3836159
0.62630773 -0.058478549 1.3130217
0.63833243 -0.05804088 1.3031952
0.80065429 -0.061298553 1.37634
0.81350291 -0.062054228 1.3933078
0.82307333 -0.059723489 1.340975
0.81970692 -0.058461376 1.3126357
0.85451204 -0.060735758 1.3637034
0.86746967 -0.061238967 1.375002
0.86139977 -0.06040119 1.356192
0.85776651 -0.057999533 1.3022673
0.98643285 -0.063603759 1.428098
0.87988961 -0.055531137 1.2468443
0.95733041 -0.060236137 1.3524852
0.97416204 -0.060744978 1.363909
1.0145755 -0.062516659 1.4036895
-0.29187375 -0.074735165 1.7546335
-0.20142792 -0.074572414 1.750813
-0.13721429 -0.076321244 1.79187
-0.1258238 -0.076381333 1.7932823
-0.077884324 -0.07827875 1.837829
-0.051115718 -0.07366661 1.729546
-0.043667179 -0.073573679 1.7273644
-0.033112776 -0.074751005 1.7550057
0.073543042 -0.072651938 1.7057227
0.086979829 -0.074801452 1.7561908
0.091250256 -0.0752277 1.7661965
0.095466822 -0.075577274 1.774405
0.10756059 -0.076083846 1.7862979
0.27978757 -0.06183267 1.4517089
0.30339348 -0.062219564 1.460791
0.31856617 -0.064013593 1.5029124
0.32289183 -0.061768617 1.4502045
0.48743996 -0.056418382 1.3245928
1.0311656 -0.079594292 1.8687166
0.80108672 -0.057804637 1.357138
0.77721983 -0.055085145 1.2932903
0.77041459 -0.053276479 1.2508261
0.87205797 -0.05694605 1.3369797
0.86984253 -0.055350348 1.2995172
0.88412303 -0.055902045 1.3124701
0.97636759 -0.059652586 1.4005255
0.97532922 -0.059407055 1.3947595
0.98115414 -0.059398748 1.3945646
1.0379851 -0.060100555 1.4110416
-0.26732841 -0.069810502 1.71741
-0.24896333 -0.070851855 1.7430283
-0.23412427 -0.073201098 1.8008223
-0.21136953 -0.070738301 1.7402353
-0.15066877 -0.071946628 1.7699628
-0.11263327 -0.071815886 1.7667443
-0.10622888 -0.072600342 1.7860421
-0.036915831 -0.07143914 1.7574757
0.073899671 -0.069671601 1.7139927
0.12384419 -0.071001917 1.746721
0.12799235 -0.06920746 1.7025763
0.13274047 -0.069790654 1.7169219
0.23883852 -0.065666378 1.615461
0.24373426 -0.065129288 1.6022478
0.29451498 -0.059477806 1.4632164
0.31646612 -0.060688712 1.4930049
0.48795906 -0.05485611 1.3495182
0.47966737 -0.052984443 1.3034711
0.49582937 -0.054453395 1.33961
0.59176815 -0.056505881 1.3901037
0.59219229 -0.05626392 1.384151
0.59136438 -0.055355627 1.361806
0.63497216 -0.056916412 1.4002014
0.65166336 -0.056806106 1.3974888
0.61931813 -0.052541561 1.2925773
0.65826911 -0.05486707 1.349787
0.64983773 -0.053002849 1.303925
0.85557473 -0.05349455 1.3160212
0.84290951 -0.05168318 1.2714598
0.89186567 -0.05381738 1.3239638
1.027999 -0.057984576 1.4264798
1.0098552 -0.056458816 1.3889441
1.0042527 -0.055981051 1.3771906
1.0093423 -0.05610029 1.3801246
1.0761337 -0.059121449 1.4544493
-0.65770924 -0.074988194 1.9374609
-0.39207122 -0.072575271 1.8751165
-0.27860096 -0.064823732 1.6748416
-0.26109856 -0.06771151 1.7494528
-0.1609149 -0.068038903 1.7579129
-0.16042989 -0.069455594 1.7945157
-0.15376905 -0.069914967 1.8063829
-0.14501134 -0.067631096 1.7473756
-0.13427195 -0.066023231 1.705834
-0.12958641 -0.0693703 1.7923107
-0.047054898 -0.066426992 1.7162654
-0.037244614 -0.068627901 1.7731307
-0.014328902 -0.067790821 1.7515024
0.044083871 -0.065582566 1.694448
0.12644273 -0.06700442 1.7311839
0.2385014 -0.062437132 1.6131802
0.24074453 -0.062126197 1.6051472
0.32452556 -0.058665898 1.5157433
0.39365613 -0.049444664 1.2774965
0.37698302 -0.04371218 1.1293857
0.38633993 -0.043952789 1.1356032
0.54854828 -0.053644344 1.3860006
0.57482392 -0.054166228 1.3994861
0.59144413 -0.054044995 1.3963534
0.80245489 -0.051498063 1.3305492
0.85497409 -0.050567508 1.3065068
0.89747769 -0.051402543 1.3280809
0.97102004 -0.053418253 1.3801606
1.0112442 -0.053990889 1.3949553
-0.66437471 -0.071942978 1.957096
-0.36088672 -0.069097511 1.8796889
-0.24798006 -0.064790301 1.7625186
-0.20437774 -0.060785446 1.6535729
-0.20796306 -0.062940255 1.7121892
-0.052827884 -0.0657079 1.7874804
-0.014582536 -0.065525383 1.7825154
-0.0030557893 -0.06350562 1.727571
0.03707293 -0.062680766 1.7051324
0.074763842 -0.063743278 1.7340372
0.29792416 -0.05383883 1.4646024
0.29966563 -0.053038917 1.4428418
0.32668558 -0.055535231 1.5107499
0.3259533 -0.054336626 1.4781437
0.47290891 -0.047516558 1.292613
0.60651696 -0.052112218 1.4176321
0.61399925 -0.050245017 1.3668379
1.0161817 -0.067434743 1.8344564
0.84888959 -0.047998991 1.3057383
0.98011959 -0.051055118 1.3888748
1.0052481 -0.051125325 1.3907851
1.0030075 -0.050860967 1.3835934
-0.66390294 -0.067663305 1.9434693
-0.6623106 -0.068356372 1.9633765
-0.39790592 -0.064927705 1.8648967
-0.091261014 -0.065121725 1.8704679
-0.056886096 -0.062493671 1.794984
-0.022025829 -0.061566278 1.768347
-0.0070389197 -0.062737122 1.8019767
0.0083328392 -0.062481623 1.7946376
0.019523188 -0.061483413 1.7659658
0.048884846 -0.060451824 1.7363364
0.29768962 -0.051492073 1.4789883
0.39938819 -0.042752326 1.2279599
0.39532775 -0.040204041 1.154767
0.46073881 -0.046278365 1.3292378
0.48945779 -0.045000721 1.2925398
0.56376445 -0.049862433 1.4321812
0.56511492 -0.049711931 1.4278594
0.57945603 -0.04989573 1.4331365
0.60289907 -0.045641337 1.3109399
1.0032829 -0.06379573 1.8323814
1.010903 -0.063782297 1.831996
1.0490731 -0.065180734 1.8721625
0.83559883 -0.045044675 1.2938021
0.85149425 -0.0454503 1.3054531
0.93865651 -0.047166221 1.3547381
-0.38575968 -0.061271787 1.8639855
-0.23792197 -0.057328295 1.7440177
-0.20953359 -0.057722889 1.7560213
-0.12758172 -0.059771251 1.8183346
-0.12295722 -0.059414651 1.8074874
-0.11551961 -0.059563566 1.8120176
-0.10521089 -0.060314637 1.834866
-0.086536407 -0.060972866 1.8548903
-0.053494249 -0.05949809 1.8100258
0.0044911765 -0.058913916 1.7922553
0.023790373 -0.059277549 1.8033158
0.034273077 -0.057466142 1.7482109
0.04930421 -0.057565384 1.7512293
0.075596407 -0.05763495 1.7533474
0.095207639 -0.058168814 1.7695874
0.099216044 -0.058301721 1.7736304
0.13051644 -0.057069756 1.7361525
0.21716866 -0.052870415 1.6084012
0.23544127 -0.05311498 1.6158421
0.29624936 -0.049431026 1.50377
0.36771685 -0.036445308 1.108725
0.37056947 -0.036492884 1.1101717
0.58258873 -0.047363855 1.4408844
0.57248098 -0.046055183 1.4010723
0.53620726 -0.042690471 1.2987107
0.64811116 -0.045686983 1.3898712
0.59268779 -0.041027877 1.2481326
0.58992231 -0.040653449 1.2367418
1.0088366 -0.060330927 1.8353605
0.83483726 -0.0424903 1.292623
0.89668769 -0.043755829 1.3311218
0.99684441 -0.045740679 1.3915024
1.0725764 -0.047242351 1.4371865
1.0462577 -0.044800106 1.3628891
1.0076317 -0.043026328 1.3089292
-0.309351 -0.052154075 1.6863573
-0.31046715 -0.052959267 1.712393
-0.29219371 -0.052964106 1.7125478
-0.23993447 -0.054393638 1.7587699
-0.22120251 -0.054409202 1.759275
-0.18073212 -0.053559177 1.7317885
-0.17596422 -0.053236552 1.7213565
-0.098388247 -0.057341933 1.8541002
0.02346893 -0.055017911 1.7789561
0.030726938 -0.054404229 1.759115
0.060011517 -0.053693708 1.7361395
0.079963811 -0.054649573 1.7670478
0.10620695 -0.054549724 1.7638177
0.37992024 -0.038130607 1.2329208
0.38304788 -0.03740669 1.2095128
0.36651486 -0.03417749 1.105101
0.57846469 -0.045202687 1.4615892
0.55620146 -0.04209885 1.3612309
0.62798232 -0.044724554 1.4461303
0.62597364 -0.043720774 1.413673
1.0105675 -0.056859735 1.8385094
1.0181701 -0.056845389 1.8380458
0.85903019 -0.040598162 1.3127053
0.88966995 -0.041106343 1.3291384
0.8987996 -0.041264627 1.3342571
0.98004246 -0.04282074 1.3845719
0.99088717 -0.042777903 1.3831863
-0.66299313 -0.056962732 1.9654003
-0.65794021 -0.056889106 1.9628576
-0.37686026 -0.053327877 1.8399866
-0.37148225 -0.053121205 1.8328551
-0.29892969 -0.049537476 1.7092054
-0.29335415 -0.049215019 1.6980774
-0.26954779 -0.048847087 1.6853838
-0.21321477 -0.049997337 1.7250714
-0.17260012 -0.052210815 1.8014429
-0.026251798 -0.052138306 1.7989428
-0.01845306 -0.051832497 1.7883906
0.00065195042 -0.051276777 1.7692165
0.0083050933 -0.051840652 1.7886714
0.030401774 -0.050444312 1.7404944
0.049595267 -0.051055152 1.7615685
0.062585212 -0.049420301 1.7051626
0.098730497 -0.051153172 1.764951
0.20609416 -0.04722929 1.6295635
0.21973328 -0.046431474 1.6020365
0.22955531 -0.046340555 1.5989001
0.29215381 -0.042980853 1.4829808
0.29195431 -0.041597638 1.4352541
0.31813496 -0.041813105 1.4426888
0.48030069 -0.03827272 1.320532
0.42038244 -0.033302359 1.1490412
0.61404884 -0.041806001 1.4424424
0.62903255 -0.041573685 1.434429
0.59559792 -0.035396058 1.2212788
0.60621947 -0.035714217 1.2322576
0.60640514 -0.035417404 1.2220163
0.92292148 -0.044509899 1.5357373
0.90069062 -0.038507439 1.3286331
0.89863646 -0.038178891 1.317297
0.87920099 -0.037005328 1.2768054
0.97757202 -0.040027551 1.3810817
1.0842847 -0.041868497 1.4446007
-0.64822781 -0.053308927 1.9715976
-0.6373558 -0.053457364 1.9770879
-0.4142254 -0.049052369 1.8141704
-0.37137508 -0.049543228 1.8323264
-0.30298588 -0.046275761 1.7114822
-0.2433854 -0.048238378 1.7840661
-0.22144844 -0.046055149 1.7033221
-0.21768385 -0.046028927 1.7023529
-0.090268508 -0.050024476 1.850125
-0.086177953 -0.049945571 1.847207
-0.056580994 -0.048273262 1.7853557
-0.030103849 -0.048651885 1.7993588
0.078245826 -0.04675173 1.7290844
0.09501674 -0.047750939 1.7660391
0.10972454 -0.04758152 1.7597728
0.13219219 -0.04754559 1.758444
0.26775065 -0.040724672 1.5061777
0.38647819 -0.033678073 1.2455631
0.48601669 -0.036343597 1.3441461
0.42823076 -0.031834252 1.1773716
0.41318858 -0.030536577 1.1293782
0.5162273 -0.034339972 1.2700425
0.5668385 -0.03198773 1.1830468
0.59065545 -0.032747414 1.2111444
0.59644401 -0.03278105 1.212387
0.91981196 -0.041680537 1.5415279
0.95753992 -0.0367993 1.3610005
1.0681496 -0.038369253 1.4190621
1.0618025 -0.037819114 1.3987151
1.0522554 -0.037373766 1.382247
-0.36864385 -0.045642387 1.8188511
-0.2877982 -0.042328361 1.6867857
-0.25435269 -0.042766739 1.7042532
-0.24526249 -0.041837435 1.667221
-0.1714083 -0.041215699 1.6424471
-0.16089514 -0.046268519 1.8438017
-0.1533636 -0.04760037 1.896875
-0.1470059 -0.046866026 1.86761
-0.13761616 -0.045097087 1.7971176
-0.11311384 -0.044524007 1.7742827
-0.093465425 -0.046054032 1.8352518
-0.058594469 -0.046396248 1.8488914
-0.04150486 -0.045005288 1.7934595
-0.026287293 -0.045203805 1.8013715
-0.01054449 -0.043783303 1.7447644
0.0080901682 -0.043723788 1.7423928
0.072840132 -0.042394474 1.6894195
0.090935111 -0.044168051 1.7600968
0.12135766 -0.044287357 1.7648519
0.12490502 -0.044207878 1.7616827
0.21064091 -0.040428102 1.6110612
0.35922354 -0.027356137 1.090142
0.36138195 -0.027343107 1.0896245
0.38247728 -0.028035866 1.1172305
0.40983093 -0.027947148 1.1136943
0.51835513 -0.031834524 1.2686068
0.60364968 -0.035230026 1.4039166
0.39072904 -0.021221245 0.84566897
0.59704018 -0.030322395 1.2083489
1.0143583 -0.046671808 1.8598694
1.0120709 -0.046204366 1.8412442
0.8178944 -0.035411824 1.4111605
0.8488192 -0.032980479 1.314272
0.84742069 -0.031668525 1.2619898
0.94278747 -0.033729333 1.3441153
1.0062202 -0.034831233 1.3880248
1.0062261 -0.034526069 1.3758637
1.0297446 -0.035127703 1.3998395
1.0414668 -0.035018854 1.3955017
1.0491836 -0.034682389 1.3820922
0.9674862 -0.03145045 1.2533002
-0.63946325 -0.045920484 1.9836255
-0.41409081 -0.042784978 1.848183
-0.41548064 -0.043763578 1.8904536
-0.39968732 -0.043365162 1.8732455
-0.37960216 -0.042905159 1.8533732
-0.33057719 -0.04030849 1.741205
-0.29903716 -0.039581899 1.7098193
-0.21419157 -0.038776807 1.6750419
-0.12997191 -0.041614998 1.7976429
-0.12835167 -0.042348087 1.8293099
-0.00299502 -0.039197352 1.6932075
0.2672942 -0.03523175 1.5219076
0.268015 -0.033687007 1.4551765
0.29875964 -0.03330043 1.4384799
0.38326025 -0.028594395 1.2351923
0.39041263 -0.026400238 1.1404096
0.40123931 -0.02538871 1.0967166
0.4057959 -0.025527949 1.1027292
0.51556128 -0.029363213 1.268404
0.61891913 -0.034171738 1.476117
0.58986181 -0.032076892 1.3856257
0.59187114 -0.027972795 1.2083415
1.0330532 -0.042841718 1.8506328
0.81238145 -0.030747071 1.3281804
0.8558833 -0.030780161 1.3296098
0.88828123 -0.031018367 1.3398993
0.78998828 -0.026641183 1.1508194
0.95720941 -0.031305768 1.3523145
1.0513901 -0.032427598 1.4007747
1.0548548 -0.03235025 1.3974323
-0.63929409 -0.04205253 1.9831009
-0.62798476 -0.041863725 1.9741975
-0.62861842 -0.042189498 1.9895574
-0.35593456 -0.038042162 1.7939812
-0.30652067 -0.035850473 1.6906254
-0.24073192 -0.035739593 1.6853993
-0.18869847 -0.03612265 1.7034616
-0.15810306 -0.039384771 1.8572952
-0.14677453 -0.039541125 1.8646706
0.0042248201 -0.035751808 1.6859742
0.10707532 -0.037708372 1.7782394
0.11100387 -0.037751816 1.7802898
0.13688307 -0.037544299 1.7705036
0.40101302 -0.023108207 1.0897321
0.40320989 -0.023100626 1.089375
0.52115506 -0.029349513 1.3840572
0.54017079 -0.02863263 1.3502499
0.5922839 -0.03041981 1.43453
0.3807618 -0.017721223 0.83569378
0.42592302 -0.019020082 0.89694476
0.62628025 -0.026534092 1.2512896
0.82023245 -0.028239457 1.3317089
0.82560194 -0.028326008 1.3357913
0.88618052 -0.028437633 1.3410541
0.90130574 -0.028372398 1.3379774
0.85614735 -0.026613066 1.2550126
1.0006497 -0.028596189 1.3485335
-0.41188467 -0.036097139 1.8740914
-0.40409282 -0.037224282 1.9326112
-0.31560418 -0.034337975 1.7827587
-0.2829622 -0.032764301 1.7010602
-0.2810325 -0.032964472 1.7114494
-0.27392694 -0.032554686 1.6901783
-0.25582227 -0.032096211 1.6663724
-0.20005885 -0.032882556 1.7071974
-0.19397478 -0.033089563 1.7179459
-0.15629761 -0.036275927 1.8833759
-0.089882135 -0.035483018 1.8422071
-0.082597837 -0.035738546 1.8554721
-0.078250296 -0.035565 1.8464655
-0.034395292 -0.035112616 1.8229766
0.085946344 -0.033424336 1.735327
0.21787699 -0.030126859 1.5641284
0.24645026 -0.030352138 1.5758209
0.27387056 -0.027991068 1.4532405
0.29099986 -0.028145697 1.4612693
0.29922503 -0.028038437 1.4557012
0.37618881 -0.023192458 1.204108
0.54368865 -0.026748341 1.3887213
0.42917091 -0.017486606 0.90787089
0.62250686 -0.024266951 1.2598907
0.6202991 -0.023871103 1.2393396
0.80726355 -0.025599951 1.3291019
0.80526125 -0.025358057 1.3165395
0.90264183 -0.025646407 1.3315113
1.0525041 -0.027009115 1.402259
1.0816735 -0.027522508 1.4289145
1.0450699 -0.026294162 1.3651426
-0.65610808 -0.034113303 1.9699531
-0.64748061 -0.034551647 1.9952664
-0.59801453 -0.034404598 1.9867752
-0.5607813 -0.033698272 1.9459853
-0.40799639 -0.032462619 1.8746302
-0.37889332 -0.032717369 1.889345
-0.35119137 -0.032397043 1.8708441
-0.32376337 -0.03166981 1.8288479
-0.30603781 -0.030676657 1.7714968
-0.27632833 -0.029140744 1.682802
-0.18073489 -0.028809423 1.6636711
-0.13954893 -0.031557374 1.8223579
-0.096114643 -0.03015078 1.7411283
-0.091568284 -0.032499567 1.8767651
-0.074153274 -0.03191011 1.8427252
-0.018614018 -0.031239316 1.8039882
0.085965157 -0.030056817 1.7357049
0.23890147 -0.027195653 1.5704787
0.2535435 -0.027695071 1.5993183
0.27207801 -0.026503675 1.5305201
0.37103912 -0.020851113 1.2040999
0.37243545 -0.020785438 1.2003056
0.38464332 -0.020614736 1.1904483
0.43131089 -0.021415902 1.236712
0.41267043 -0.019532697 1.1279616
0.78829604 -0.022554345 1.3024565
0.79213399 -0.02250525 1.2996184
0.81710964 -0.022893686 1.322051
0.83318251 -0.022339724 1.2900606
0.88331872 -0.023073118 1.3324138
0.86081147 -0.021514162 1.2423869
0.78472906 -0.019492399 1.1256343
0.78000373 -0.019315775 1.1154363
0.86230052 -0.021224018 1.225632
0.97943884 -0.023465548 1.355077
1.0484117 -0.024897179 1.4377482
1.0242091 -0.023902098 1.3802832
1.0888953 -0.024839286 1.4344044
1.0819141 -0.024610758 1.4212071
-0.64339679 -0.030279255 1.9697087
-0.57734448 -0.029278085 1.9045799
-0.48500806 -0.028633341 1.8626369
-0.41006368 -0.028963681 1.8841293
-0.15840934 -0.028606508 1.860894
-0.15154007 -0.028812908 1.8743206
-0.05737235 -0.02782923 1.8103285
-0.030712252 -0.028219663 1.8357292
0.13040708 -0.027446952 1.7854613
0.27405632 -0.023142414 1.5054476
0.30529594 -0.022366591 1.454978
0.37348518 -0.018503645 1.2036886
0.38732284 -0.018306483 1.1908637
0.38628045 -0.012676085 0.82459694
0.64413244 -0.01953344 1.2706789
0.79831594 -0.020063853 1.3051842
0.92568707 -0.020043246 1.3038437
1.0112066 -0.021070337 1.3706567
-0.65383047 -0.027055437 2.0148332
-0.58880413 -0.025542328 1.9021488
-0.57438976 -0.025807973 1.9219351
-0.45340368 -0.025472829 1.8969723
-0.36092576 -0.025243422 1.8798927
-0.25162724 -0.0229686 1.7104882
-0.20931555 -0.023141026 1.7233247
-0.14027467 -0.024598137 1.8318356
0.13397358 -0.02393079 1.7821397
0.22371632 -0.020924097 1.5582298
0.24273047 -0.02142656 1.5956491
0.28859052 -0.019886553 1.4809607
0.29253545 -0.019939676 1.4849182
0.29873082 -0.019929457 1.4841614
0.37677565 -0.016305698 1.2142931
0.37526456 -0.015911475 1.1849365
0.37314054 -0.01472803 1.0968052
0.42832726 -0.01581342 1.1776369
0.38418451 -0.01106316 0.82388151
0.58094996 -0.015926329 1.1860455
0.62342542 -0.01658427 1.2350374
0.63873363 -0.01691982 1.2600287
0.78912127 -0.017385064 1.2946758
0.82368737 -0.016162876 1.2036583
0.76777148 -0.014698424 1.0945981
1.0218092 -0.017823746 1.327346
1.0040296 -0.017416937 1.2970476
-0.55780095 -0.022394707 1.9501071
-0.46651706 -0.021273183 1.852445
-0.44325891 -0.021489259 1.8712612
-0.38257802 -0.021676879 1.887601
-0.29969293 -0.020427285 1.7787831
-0.27242091 -0.019303018 1.680885
-0.26019943 -0.019196469 1.671611
-0.1640975 -0.020586854 1.7926813
-0.11562964 -0.020828715 1.8137432
-0.089708962 -0.021114863 1.838657
-0.044007875 -0.021837903 1.9016181
-0.030566115 -0.020980908 1.8269939
-0.022688031 -0.020917905 1.8215086
-0.015030253 -0.021098556 1.8372424
0.26064578 -0.01862965 1.6222469
0.27226254 -0.01758818 1.5315582
0.37415189 -0.013039246 1.1354454
0.36914951 -0.012781992 1.1130447
0.58010626 -0.01360055 1.1843226
0.87017751 -0.015220749 1.3254111
0.96035767 -0.015303546 1.3326181
1.001241 -0.015630536 1.3610915
1.0327021 -0.015534949 1.3527638
1.0380162 -0.015571222 1.3559289
1.0059303 -0.014964611 1.3031013
-0.4132168 -0.018291494 1.9174473
-0.32587156 -0.017774448 1.8632525
-0.31917804 -0.017624756 1.8475591
-0.27422464 -0.016140984 1.6920146
-0.27051091 -0.016135199 1.691406
-0.2661936 -0.016092701 1.6869559
-0.25497127 -0.015843466 1.6608287
-0.23607972 -0.016771009 1.7580574
-0.19752495 -0.01668828 1.7493873
-0.17719217 -0.016196813 1.6978689
-0.14269345 -0.017293436 1.8128237
-0.089916885 -0.017580466 1.8429188
-0.080463298 -0.018112501 1.8986849
-0.061110746 -0.017232701 1.8064568
0.26626199 -0.014640328 1.5347073
0.27170971 -0.014580574 1.5284488
0.27729875 -0.014036695 1.4714317
0.38427073 -0.010641363 1.1155049
0.40695655 -0.011131408 1.1668798
0.461191 -0.012462175 1.3063757
0.38314974 -0.008022056 0.84093493
0.56566697 -0.011312836 1.1858917
0.86651444 -0.012309946 1.2904245
0.88328499 -0.01242959 1.3029575
0.96056503 -0.012715233 1.3329059
0.99520892 -0.012794375 1.3412011
-0.62376988 -0.014794315 1.947859
-0.61913717 -0.0148831 1.9595495
-0.38695598 -0.01450072 1.9092016
-0.33015421 -0.013512035 1.7790329
-0.30229908 -0.01296951 1.7076021
-0.17716008 -0.013162849 1.7330545
-0.13539517 -0.013429137 1.7681137
-0.03462125 -0.013936845 1.8349543
0.10319752 -0.01349593 1.776911
0.10747465 -0.013556327 1.7848706
0.1420626 -0.013580688 1.7880683
0.25194466 -0.012404991 1.6332735
0.26154941 -0.012363949 1.6278712
0.37461787 -0.0090453215 1.1909317
0.37524045 -0.0088206176 1.1613469
0.37029609 -0.0084257182 1.1093524
0.37603602 -0.0083426172 1.0984151
0.4092291 -0.0088578369 1.1662486
0.40819272 -0.0084741041 1.1157228
0.43146384 -0.0086052855 1.1329973
0.43502662 -0.0085800104 1.1296722
0.39205259 -0.0066286931 0.87275708
0.38354069 -0.0063048154 0.83011055
0.38446933 -0.0062909429 0.82828927
0.84571117 -0.010321308 1.3589287
0.90560573 -0.01040874 1.3704501
0.75080359 -0.0083330423 1.0971531
0.74225879 -0.0081617311 1.0745974
0.99844402 -0.010308823 1.3572894
0.9911834 -0.0098613761 1.2983775
0.98514855 -0.0096927388 1.27618
-0.57818288 -0.01085463 1.9208888
-0.534724 -0.010973834 1.9419841
-0.5260613 -0.010880514 1.9254696
-0.48818019 -0.010339681 1.8297614
-0.42239743 -0.010755897 1.9034138
-0.41737723 -0.010836799 1.9177334
-0.34689906 -0.010210123 1.8068336
-0.29726037 -0.0098451013 1.7422435
-0.26842576 -0.0096126487 1.7011018
-0.11715592 -0.010047575 1.7780731
-0.10855439 -0.0099557787 1.7618297
0.11134629 -0.010091157 1.7857817
0.11923669 -0.010112912 1.7896345
0.12964901 -0.010030692 1.7750828
0.24040663 -0.0091886166 1.6260673
0.24916878 -0.0092558824 1.6379734
0.25328064 -0.0091514988 1.6194944
0.40115917 -0.0064998795 1.1502566
0.82464588 -0.0076185968 1.3482319
0.83902788 -0.0076710763 1.357514
0.84761912 -0.0076438719 1.3527031
0.73341733 -0.0060562571 1.0717465
0.96656668 -0.0077163824 1.3655337
0.97368127 -0.0075675719 1.339191
1.0210069 -0.0077753924 1.3759679
1.0279826 -0.0078059798 1.3813897
0.97095275 -0.0071871546 1.2718767
0.97995204 -0.0072133779 1.276517
0.97160727 -0.0071321037 1.262133
-0.7040658 -0.0072320891 1.9511677
-0.66830212 -0.0072969184 1.9686651
-0.3926312 -0.0069601159 1.8777959
-0.28630057 -0.0062984885 1.6992953
-0.2711632 -0.0062843449 1.6954845
-0.25358978 -0.0063894056 1.7238287
-0.24882825 -0.0063618631 1.716399
-0.23266365 -0.0063213613 1.7054732
-0.21097696 -0.0063269106 1.7069665
-0.086753905 -0.0068924776 1.8595506
-0.022667527 -0.0067453594 1.8198583
-0.018743169 -0.0067329076 1.8165056
0.09092252 -0.0065229898 1.7598529
0.11459257 -0.006586263 1.7769349
0.25275809 -0.0059903106 1.6161531
0.30723757 -0.0055400901 1.4946818
0.40973118 -0.0040562158 1.0943547
0.41166881 -0.00327217 0.88282162
0.91260123 -0.0051188329 1.3810365
0.75862616 -0.0041478435 1.1190697
0.7394163 -0.0039924351 1.0771487
0.97657847 -0.0049784817 1.343176
0.98436642 -0.0050035203 1.3499188
1.0307403 -0.0051339236 1.3850955
1.0469049 -0.00512604 1.3829849
0.96637952 -0.0046920264 1.2658858
-0.68365806 -0.0033787193 1.9173261
-0.67836291 -0.0033727305 1.9139484
-0.56017441 -0.0033509063 1.9015688
-0.27210909 -0.0029586125 1.6789613
-0.2168365 -0.002988219 1.6957259
-0.16970025 -0.0029878467 1.6955305
-0.15427351 -0.0031936369 1.8123085
-0.12492786 -0.0031376046 1.7805128
-0.071175441 -0.0032916595 1.8679386
-0.014788597 -0.00318555 1.8077061
0.26087153 -0.0026496907 1.5036378
0.28334683 -0.0025623601 1.4540517
0.31003398 -0.0026305395 1.4927638
0.38507846 -0.0019577122 1.1109565
0.42226636 -0.0020339107 1.1541905
0.4145574 -0.0016108942 0.91415644
0.768089 -0.0022206511 1.2601689
0.85083961 -0.0023927744 1.3578427
0.91901678 -0.0024428517 1.3862616
0.74025625 -0.0019062479 1.0817401
0.89145964 -0.0022193317 1.259425
-0.56672877 0.00035822086 1.9666241
-0.47250158 0.00032255781 1.7709957
-0.4208701 0.00033886672 1.8606896
-0.2179389 0.00031044453 1.7043478
-0.17067994 0.00031061372 1.7053188
-0.12158909 0.00032556918 1.7873753
-0.062939711 0.00033886672 1.8605207
-0.026561296 0.00033149048 1.8201487
-0.010935058 0.00032956182 1.8093814
0.10292074 0.00032276081 1.7721467
0.11401419 0.00032205027 1.7679651
0.30952784 0.00027139788 1.4903268
0.38257188 0.00022152375 1.2162182
0.37440997 0.00019919204 1.0936655
0.44938579 0.00022504269 1.235535
0.43351761 0.00021583932 1.1849438
0.41954237 0.00020768486 1.1400847
0.40697977 0.00019804163 1.0870057
0.40728983 0.00019702654 1.0816597
0.41327244 0.00019658668 1.0791705
0.78648478 0.00023583634 1.2948911
0.81443429 0.00024168994 1.3268999
0.90363419 0.00024994591 1.371904
0.81776065 0.00021973044 1.2063009
0.96634972 0.00023996434 1.3174883
0.96394902 0.00022808791 1.2521847
-0.67864698 0.004071713 1.9147502
-0.65480834 0.0041277451 1.9411368
-0.50649172 0.0037937507 1.7840577
-0.37933663 0.0039799158 1.8716089
-0.33389127 0.003657392 1.7199352
-0.29719162 0.0035698246 1.6787517
-0.29142708 0.0036321166 1.7080547
-0.26409698 0.0035114577 1.6513021
-0.23751129 0.0035896862 1.6881115
-0.21895912 0.0036412184 1.7123258
-0.19631948 0.0036973183 1.7387103
-0.13443172 0.0037330829 1.755533
-0.10936517 0.0039101122 1.8387734
-0.10445128 0.0038736374 1.821617
-0.075468644 0.0039880364 1.8754147
-0.071041353 0.003964622 1.8644193
-0.058929682 0.003954099 1.8594667
-0.026631035 0.0038806752 1.8249277
0.04498668 0.0036769831 1.7291464
0.12797861 0.0037260451 1.7522119
0.1355343 0.0037278384 1.7530594
0.39219075 0.0026694171 1.2553269
0.37575963 0.0023340355 1.0976076
0.45724201 0.0027050462 1.2720851
0.44334018 0.0024080346 1.1324052
0.7428084 0.0026006286 1.2229811
0.76842856 0.0026809212 1.2607263
0.7557627 0.0026092906 1.2270377
0.68918782 0.0023711873 1.1150787
0.74376839 0.0024900867 1.1709926
0.71974152 0.0023542016 1.1070862
0.8996731 0.0028857978 1.3570828
0.91340733 0.0029110732 1.3689728
0.95858508 0.0028285473 1.3301584
0.96779275 0.0026659658 1.253697
-0.69052708 0.0080771409 1.9841641
-0.61334354 0.0079561099 1.9544334
-0.50217825 0.0073670605 1.8097384
-0.37772352 0.0076673878 1.883512
-0.3138321 0.0068056886 1.6718267
-0.28834572 0.0068796542 1.6899947
-0.28066209 0.0068683526 1.6872329
-0.24805643 0.0068642586 1.6862146
-0.219788 0.00723889 1.7782531
-0.20791088 0.007093057 1.7424217
-0.20362286 0.0070734662 1.7376094
-0.18867788 0.0070700827 1.7367854
-0.16443031 0.0073124832 1.7963172
-0.1229471 0.0073573156 1.8073372
-0.093353093 0.0074619362 1.8330443
0.045771606 0.0071618119 1.7593169
0.1073144 0.0072550299 1.7822095
0.11072756 0.0072291791 1.7758586
0.12833084 0.0071525746 1.757035
0.13533717 0.0071259793 1.7505093
0.25294501 0.0064951763 1.5955433
0.38440377 0.0049411603 1.2137942
0.38103607 0.00480064 1.179284
0.37106496 0.0044681681 1.0976
0.45113876 0.0050197612 1.2331083
0.42074165 0.0046009063 1.1302149
0.60797715 0.0045026806 1.106083
0.75074756 0.0049965838 1.2274137
0.73170209 0.0047213286 1.1598008
0.72054034 0.0046180277 1.1344221
0.72878855 0.0045634164 1.1210024
0.79032147 0.0048844516 1.199872
0.74691743 0.0044293921 1.088076
0.80972344 0.0047137495 1.1579368
-0.86930251 0.011715246 1.9476365
-0.68928397 0.011913525 1.9805921
-0.65699744 0.011641417 1.9353635
-0.48217607 0.010372299 1.7243729
-0.39012796 0.011109583 1.8469441
-0.2885038 0.010171076 1.6909215
-0.25418821 0.0096895918 1.6108731
-0.24928896 0.0096332887 1.6015184
-0.24899243 0.0098935543 1.6447823
-0.25076801 0.010253636 1.7046462
-0.20334493 0.010437636 1.7352374
-0.18442568 0.010416455 1.7317152
-0.1822255 0.010502974 1.7460984
-0.15816058 0.0099293189 1.6507356
-0.14091888 0.010768754 1.7902787
-0.11066203 0.010803402 1.7960359
-0.089452215 0.011028039 1.8333943
0.24810281 0.0096745342 1.6083678
0.36761087 0.0066671981 1.1084055
0.36555621 0.0065874807 1.0951527
0.38332543 0.0066933874 1.1127605
0.3917461 0.006756593 1.1232666
0.45883495 0.0076330109 1.2689711
0.40763721 0.0065118913 1.082582
0.40675285 0.0064610699 1.0741363
0.60434031 0.008209575 1.3648171
0.64468926 0.0065458966 1.0882412
0.77755016 0.0067295241 1.1187665
-0.96769547 0.014840467 1.8645139
-0.85283679 0.0157359 1.9770161
-0.60234606 0.015488256 1.9458963
-0.48145074 0.01380996 1.7350409
-0.46907395 0.013993893 1.7581489
-0.45297942 0.013733762 1.7254696
-0.39434233 0.014859483 1.8668957
-0.29108721 0.01375156 1.7277052
-0.23680848 0.013816423 1.7358562
-0.21647556 0.013474579 1.6929033
-0.21304433 0.013719618 1.7236921
-0.15095252 0.014477949 1.8189666
-0.13572861 0.014107886 1.7724694
0.13855408 0.013880542 1.7439086
0.3860417 0.0095097534 1.1947763
0.38215423 0.0088299224 1.1093607
0.38926855 0.0088840602 1.1161627
0.43859577 0.0097703245 1.2275091
0.45495701 0.010014991 1.2582462
0.43907788 0.0094969971 1.1931714
0.60553557 0.0088719465 1.1146437
0.71850032 0.0090648448 1.138875
0.93742895 0.010323067 1.2969556
0.99102992 0.0102467 1.2873633
-0.97474569 0.017316647 1.7484881
-0.97791994 0.017439878 1.7609332
-0.89210165 0.018719113 1.8901047
-0.85497761 0.019532325 1.9722071
-0.62427175 0.018927677 1.9111584
-0.60031277 0.019340238 1.9528112
-0.48109627 0.017439405 1.7608899
-0.46356344 0.017346693 1.751526
-0.39611593 0.018572466 1.8752921
-0.36239532 0.018693803 1.8875464
-0.25506371 0.016228518 1.6386172
-0.16095665 0.016274568 1.6432619
-0.018976841 0.018214483 1.8391483
0.043246768 0.017936284 1.8110558
0.2524614 0.015987234 1.6142566
0.29090875 0.014624527 1.4766608
0.31133172 0.014694668 1.4837428
0.37720403 0.011638912 1.175198
0.38058397 0.010941758 1.1048028
0.45837396 0.012629628 1.2752343
0.59738153 0.011020629 1.1127683
0.77134591 0.013377775 1.3507731
0.75780433 0.012901466 1.3026804
0.64229178 0.010894895 1.1000701
0.64012158 0.010586751 1.0689609
0.74474531 0.01127115 1.1380638
0.908764 0.01252609 1.2647766
0.93350726 0.012715843 1.2839366
0.93815142 0.012741625 1.2865417
-0.98873436 0.021094462 1.7804067
-0.96094251 0.022211181 1.8746628
-0.96619844 0.022615556 1.9087932
-0.88983375 0.021650927 1.8273742
-0.88842046 0.023696816 2.0000474
-0.6897487 0.023057282 1.9460722
-0.69061625 0.023368133 1.9723072
-0.61753988 0.023157034 1.9544941
-0.49396443 0.020930018 1.7665305
-0.39792091 0.022319896 1.8838371
-0.36300251 0.022154709 1.8698932
-0.35534546 0.022175688 1.8716632
-0.31769031 0.020760637 1.7522322
-0.29578021 0.019559393 1.6508477
-0.32207069 0.022088425 1.8643025
-0.23646346 0.019325553 1.6311078
-0.25435957 0.021099232 1.7808087
-0.1942454 0.020776099 1.7535363
-0.16255093 0.022070391 1.8627763
-0.093266405 0.020824011 1.7575802
0.094576806 0.02082736 1.7578626
0.12916929 0.020953534 1.768514
0.3848688 0.014496423 1.2235203
0.45123729 0.015052923 1.2704889
0.4824968 0.014763051 1.246026
0.54738462 0.012427087 1.0488679
0.5711025 0.012654599 1.0680697
0.77970892 0.016177628 1.3654181
0.80077219 0.016430181 1.3867328
0.70913327 0.013009098 1.0979886
0.71541286 0.013081034 1.1040581
-0.98884612 0.024558889 1.7806081
-1.0146672 0.026000703 1.8851467
-0.97249204 0.025528185 1.8508886
-0.93740636 0.024707697 1.791399
-0.92444056 0.025295867 1.8340418
-0.93103725 0.026962658 1.9548926
-0.67575902 0.026946619 1.9537283
-0.61477268 0.026656071 1.9326624
-0.59532863 0.026897321 1.9501567
-0.5976671 0.02738652 1.9856216
-0.53659081 0.026467199 1.9189724
-0.45636636 0.023220135 1.683545
-0.3991434 0.026062487 1.889625
-0.38878775 0.0259107 1.8786178
-0.36068147 0.025625428 1.8579372
-0.31011498 0.023872627 1.7308546
-0.31127083 0.024547314 1.7797685
-0.26451176 0.023120217 1.6762981
-0.23941973 0.02277817 1.6514994
-0.21670128 0.023770915 1.7234761
-0.17250799 0.024291109 1.7611933
-0.15625785 0.023007002 1.6680886
-0.11683542 0.02527675 1.8326564
-0.071244434 0.025788348 1.8697509
-0.059560012 0.025920851 1.8793559
0.031672586 0.025009107 1.8132495
0.042584397 0.024596276 1.7833207
0.11840683 0.02451155 1.7771788
0.30991691 0.020371422 1.4770006
0.38135055 0.016835466 1.2206296
0.37553293 0.016030239 1.1622518
0.37887472 0.016066646 1.1648891
0.468804 0.018205279 1.3199492
0.51038271 0.013599941 0.98604351
0.51933199 0.013781505 0.99920732
0.53440177 0.013895701 1.0074866
0.603567 0.014912943 1.081242
0.64050663 0.014966134 1.085096
0.65054017 0.014930233 1.0824957
0.71710014 0.015677264 1.1366557
0.71219772 0.015209381 1.1027336
0.76569206 0.015981549 1.1587194
0.82913911 0.017139517 1.2426755
-0.98545676 0.027924918 1.7745044
-1.0240211 0.030546051 1.9410653
-0.89731979 0.027320033 1.736066
-0.90667075 0.027719365 1.7614418
-0.92332023 0.02907341 1.8474871
-0.69529068 0.031058226 1.9736103
-0.68935418 0.031171272 1.9807941
-0.67870086 0.0308792 1.9622337
-0.61237502 0.030092988 1.9122758
-0.59650362 0.030749708 1.9540056
-0.59026581 0.030860284 1.9610326
-0.49048853 0.026784884 1.7020603
-0.52594084 0.030293671 1.9250284
-0.46361318 0.027128113 1.723871
-0.42868161 0.028479116 1.8097216
-0.41712749 0.0284825 1.8099378
-0.39202002 0.029504379 1.8748722
-0.37567946 0.029479915 1.8733188
-0.32043171 0.02781238 1.7673528
-0.31228518 0.028802993 1.8303033
-0.23309875 0.026888795 1.7086632
-0.22633691 0.026524348 1.6855043
-0.20006454 0.02788364 1.7718798
-0.1481729 0.028840348 1.8326734
-0.10926277 0.028909238 1.8370526
-0.086815178 0.029283937 1.8608648
-0.018970445 0.028932553 1.8385339
0.059254203 0.028754406 1.8272136
0.10658551 0.027855689 1.7701049
0.14305176 0.027592041 1.7533491
0.3971388 0.018030383 1.1457508
0.46664846 0.020309536 1.2905809
0.45214903 0.01944858 1.2358699
0.41859224 0.017594034 1.1180218
0.57596445 0.019893218 1.2641237
0.51215464 0.016172012 1.0276585
0.498409 0.015279285 0.97092927
0.67070758 0.017946063 1.1403896
0.7235049 0.018232383 1.1585829
0.79031825 0.017839987 1.1336516
-1.0212078 0.033950724 1.9201734
-0.95116514 0.033365261 1.8870618
-0.94395792 0.035361681 1.9999732
-0.90027493 0.035158191 1.9884633
-0.88953608 0.034903575 1.9740632
-0.87516111 0.035003662 1.9797232
-0.63319194 0.033831451 1.9134268
-0.62097865 0.034286071 1.9391421
-0.59465486 0.034684725 1.9616843
-0.50082672 0.031427883 1.7774855
-0.34176487 0.032190647 1.8206284
-0.24957798 0.029149879 1.6486497
-0.1974317 0.030916452 1.7485611
-0.15476008 0.032144628 1.8180244
-0.12028456 0.032277808 1.8255554
-0.088990726 0.032249216 1.8239375
-0.075561561 0.033200104 1.8777212
-0.026873771 0.03256081 1.8415631
-0.022976752 0.032616131 1.8446909
0.027438764 0.031647038 1.7898813
0.10620107 0.031184467 1.7637193
0.2478642 0.028410293 1.6068212
0.29027373 0.026051998 1.4734378
0.30650592 0.026093312 1.4757768
0.36924732 0.02020593 1.1427983
0.46529847 0.022619141 1.2792848
0.41800621 0.019853529 1.1228667
0.45494151 0.021122646 1.194648
0.49923772 0.017788151 1.0060548
0.79156554 0.024147678 1.365734
0.82167059 0.023752172 1.3433673
0.80261153 0.022802837 1.2896742
0.79843575 0.022529475 1.2742119
0.68575013 0.019089345 1.0796479
0.68929851 0.019123755 1.0815947
0.69834489 0.019245632 1.0884889
0.75898403 0.020778399 1.1751753
-1.0233154 0.037762001 1.9241368
-1.0304487 0.038804926 1.9772809
-0.93211144 0.038583029 1.9659716
-0.90733016 0.039330263 2.0040462
-0.88821846 0.038868807 1.9805329
-0.8763178 0.03871702 1.9728012
-0.69665909 0.038575113 1.9655696
-0.67476797 0.039009701 1.987712
-0.62872034 0.038789835 1.9765099
-0.56108236 0.038786586 1.9763465
-0.42814657 0.033940945 1.729439
-0.33805317 0.035342529 1.8008553
-0.28406265 0.033088684 1.6860126
-0.24756855 0.033027578 1.682898
-0.2424919 0.033318531 1.6977212
-0.23901463 0.033339579 1.6987962
-0.23072603 0.033191882 1.6912707
-0.034547418 0.035934962 1.8310421
0.027182356 0.034798954 1.7731586
0.10652027 0.034717783 1.769021
0.24822576 0.031580515 1.6091647
0.2521916 0.031646565 1.6125313
0.25504422 0.031573039 1.6087844
0.25841898 0.031565256 1.6083874
0.26219371 0.031605892 1.6104584
0.29428545 0.029001847 1.4777683
0.30290049 0.02891966 1.473582
0.46584979 0.025136262 1.2808007
0.48327571 0.019279063 0.98235053
0.46584791 0.018266354 0.93075025
0.46369281 0.018104549 0.92250538
0.49572095 0.019111304 0.97380221
0.44916123 0.016354963 0.83335435
0.60796279 0.021051997 1.0726883
0.76746655 0.026180169 1.3339934
0.66974217 0.020763816 1.0580055
0.77941048 0.02322291 1.1833067
-0.99598902 0.039289523 1.8215122
-1.0203973 0.041384779 1.9186492
-0.98909557 0.042506877 1.9706707
-0.92040551 0.041685037 1.9325695
-0.93328243 0.042458765 1.968441
-0.9218294 0.042707831 1.9799877
-0.87509644 0.042493481 1.9700513
-0.87626606 0.042963732 1.991853
-0.78043675 0.042844698 1.9863321
-0.66687804 0.04264158 1.9769166
-0.63868433 0.041900776 1.9425709
-0.62567353 0.04271321 1.9802374
-0.50561005 0.039302345 1.8221059
-0.47830188 0.038361538 1.7784886
-0.44672012 0.038588714 1.7890192
-0.30992842 0.036871776 1.7094216
-0.2817871 0.036075551 1.6725056
-0.23666945 0.036283098 1.6821285
-0.1707762 0.0376071 1.7435125
-0.15717149 0.038849927 1.8011295
-0.11236712 0.039336927 1.8237091
-0.098653354 0.038547602 1.7871168
-0.079477184 0.040452261 1.8754158
0.037617147 0.037319191 1.7301639
0.25278148 0.034863278 1.6163031
0.26384774 0.034956325 1.6206175
0.29715732 0.031844404 1.4763445
0.45862976 0.027853085 1.2913032
0.52519828 0.028166777 1.3058466
0.61634004 0.023456445 1.0874692
0.78133172 0.027944136 1.2955247
0.83400607 0.029105995 1.3493891
0.74782223 0.025830306 1.1975232
0.66342813 0.022529714 1.0445044
0.74647909 0.024054971 1.1152163
-0.95787036 0.040714387 1.7314941
-0.97302353 0.041680638 1.772583
-0.97561955 0.04211976 1.791261
-0.91418219 0.042467121 1.8060313
-0.91200614 0.047143515 2.004909
-0.90524358 0.047014836 1.9994372
-0.70749271 0.045563377 1.9377099
-0.68605888 0.046640307 1.9835069
-0.67792445 0.046957791 1.9970099
-0.63911039 0.045708161 1.9438664
-0.61818719 0.046319578 1.9698683
-0.60063702 0.045943324 1.9538656
-0.52533096 0.042865336 1.822968
-0.44823748 0.043706395 1.8587358
-0.43708599 0.043388203 1.8452022
-0.40470099 0.044157799 1.8779314
-0.29952234 0.039783832 1.6919174
-0.26151797 0.03950553 1.6800821
-0.16633774 0.039931491 1.6981987
-0.14436206 0.043125331 1.8340223
-0.12672965 0.04247091 1.8061918
-0.083570316 0.042121083 1.7913148
-0.075665638 0.04421363 1.880309
0.037577223 0.040640015 1.7283281
0.045188002 0.040841237 1.7368864
0.070337497 0.042582061 1.8109202
0.08308626 0.041225784 1.75324
0.30660328 0.034712505 1.4762456
0.37465793 0.027817624 1.1830212
0.36832514 0.025946565 1.103448
0.36788291 0.02575052 1.0951113
0.38220695 0.026089184 1.1095138
0.40516102 0.025591796 1.0883613
0.51859754 0.030645529 1.3032864
0.49217218 0.023940332 1.0181276
0.75336182 0.031021615 1.3192794
0.79038727 0.03059924 1.3013164
0.77736479 0.029989552 1.2753878
0.77562034 0.029305659 1.2463032
-0.90874207 0.047302984 1.858049
-0.92151499 0.048178386 1.892435
-0.91145051 0.051010691 2.0036879
-0.8732509 0.050534923 1.9849993
-0.73325586 0.049114797 1.9292176
-0.73009986 0.049179997 1.9317778
-0.73708898 0.050218727 1.9725807
-0.63900715 0.049160171 1.9309999
-0.46490598 0.049080148 1.9278563
-0.44873568 0.049114287 1.9291962
-0.4089587 0.047837727 1.8790522
-0.39524731 0.047637217 1.8711796
-0.38330147 0.047643747 1.871435
-0.35004118 0.046415739 1.8231996
-0.26869163 0.0427709 1.6800309
-0.24825537 0.04174963 1.6399138
-0.21035959 0.042592958 1.6730394
-0.18936437 0.043520432 1.7094723
-0.090818241 0.045399275 1.7832727
0.024152348 0.046608027 1.8307502
0.037387606 0.043778501 1.7196071
0.061755758 0.045484032 1.7866014
0.10775549 0.04555871 1.7895343
0.12612128 0.045286398 1.778838
0.14705509 0.04588668 1.8024174
0.15075451 0.045840122 1.8005897
0.30085856 0.037653692 1.4790275
0.4277218 0.031032577 1.2189505
0.4061076 0.028259454 1.1100235
0.39033765 0.027004344 1.0607225
0.50232619 0.031796999 1.2489779
0.47179437 0.024309346 0.95486385
0.45328599 0.023155373 0.9095363
0.4100028 0.020165971 0.79211271
0.71804661 0.028975625 1.1381558
0.75156462 0.0292386 1.1484845
-0.96684808 0.048644103 1.7751567
-0.87900442 0.054225814 1.9788492
-0.87411493 0.05418494 1.9773567
-0.71873486 0.053628337 1.9570448
-0.71381921 0.054207947 1.9781975
-0.63399118 0.053186271 1.9409143
-0.60229558 0.053689107 1.9592612
-0.60017377 0.054254405 1.9798906
-0.5957433 0.054624129 1.9933848
-0.55462897 0.053134367 1.9390173
-0.22504444 0.046666428 1.7029847
-0.19883142 0.045661975 1.6663301
-0.11234652 0.049965397 1.823374
-0.072497956 0.052137733 1.9026477
0.033746459 0.047169637 1.721349
0.048731368 0.047430884 1.7308831
0.091681667 0.048627391 1.774546
0.11424088 0.048543409 1.7714814
0.12134223 0.04835562 1.7646278
0.26004851 0.044352122 1.61853
0.31414652 0.04102622 1.4971582
0.49545312 0.033757113 1.2318887
0.49289376 0.027817387 1.0151321
0.45372191 0.024735613 0.9026683
0.44535139 0.024074527 0.87854397
0.73238993 0.0308703 1.126542
-0.98238194 0.052316654 1.7826899
-0.90304917 0.054186564 1.8464087
-0.91283953 0.055501699 1.8912213
-0.9159565 0.058816604 2.0041766
-0.74127376 0.057235889 1.9503137
-0.71731168 0.058685862 1.9997214
-0.70659822 0.059220806 2.0179498
-0.68515688 0.059231568 2.0183151
-0.61259234 0.058077659 1.9789968
-0.59415656 0.058764361 2.0023963
-0.46481824 0.054165754 1.8456998
-0.41146672 0.054943204 1.87219
-0.27926534 0.048034448 1.6367743
-0.23006691 0.049491964 1.6864389
-0.20143943 0.047829743 1.6297998
-0.15619227 0.048932929 1.667389
-0.15357442 0.049236167 1.6777226
-0.15023282 0.050524231 1.7216145
-0.14125727 0.052665573 1.7945786
-0.076877102 0.05606493 1.9104122
-0.015231374 0.054638948 1.8618236
0.070388585 0.053183734 1.8122363
0.084428191 0.052283362 1.7815553
0.14431776 0.051910963 1.7688665
0.30728284 0.043870907 1.4949017
0.38438341 0.032746367 1.1158319
0.3876026 0.032817017 1.1182388
0.39617935 0.031232141 1.0642345
0.46697018 0.027616436 0.94102973
-1.0027266 0.056068245 1.7918103
-1.0323173 0.057944112 1.8517588
-0.95020199 0.062151574 1.9862193
-0.92981893 0.062207941 1.9880223
-0.90042287 0.06252712 1.9982226
-0.87400383 0.062166899 1.9867105
-0.79826534 0.062554121 1.9990842
-0.785999 0.062598035 2.000489
-0.77508819 0.062753208 2.0054474
-0.74652064 0.060776412 1.9422734
-0.72040391 0.062471557 1.9964458
-0.58960509 0.062628932 2.0014739
-0.57464045 0.061938066 1.9793977
-0.46694362 0.056113686 1.7932619
-0.47468168 0.05751561 1.8380663
-0.46363601 0.060160466 1.9225898
-0.4231101 0.059660979 1.9066257
-0.3739616 0.059621558 1.9053668
-0.27975357 0.05130652 1.6396363
-0.27783445 0.052263938 1.6702346
-0.27642211 0.05267508 1.6833731
-0.25086522 0.052597258 1.6808866
-0.19700868 0.056746013 1.8134708
-0.12999678 0.05464609 1.7463619
-0.11041993 0.05809265 1.8565072
-0.095698327 0.058799583 1.8790975
-0.015250694 0.058333088 1.8641893
0.082515784 0.057058014 1.8234414
0.31715596 0.04729696 1.5115007
0.44941232 0.036517955 1.1670287
0.49080175 0.038595852 1.2334331
0.48515102 0.030993059 0.99046534
-1.0227593 0.061445788 1.8487908
-0.98027408 0.059351988 1.7857913
-1.0033977 0.061228868 1.8422629
-1.0161226 0.064014986 1.9260927
-0.92707402 0.059860103 1.8010802
-0.93673384 0.061246835 1.8428029
-0.94879889 0.062828191 1.8903837
-0.92536056 0.062609203 1.8837951
-0.71324569 0.066882409 2.0123677
-0.67052096 0.06523639 1.9628423
-0.50254649 0.057533104 1.7310636
-0.46960294 0.057576686 1.7323751
-0.46183574 0.057531651 1.7310193
-0.47347462 0.062485497 1.880073
-0.40949562 0.062533617 1.8815198
-0.39977413 0.062272094 1.873652
-0.39705157 0.062473826 1.8797219
-0.20696507 0.056632731 1.7039731
-0.18643276 0.059372593 1.7864122
-0.093450367 0.060986027 1.8349562
-0.022972388 0.061297961 1.8443412
0.13233911 0.058508053 1.7603983
0.14948194 0.057861552 1.7409475
0.3156561 0.04999822 1.5043522
0.38643047 0.034900971 1.0501047
0.46744481 0.031307563 0.9419862
0.69339108 0.036528546 1.099075
-0.98784554 0.066412397 1.8877892
-0.93112385 0.066976063 1.9038115
-0.95453435 0.069881588 1.9864011
-0.94903117 0.070418261 2.0016572
-0.93401647 0.069618039 1.9789107
-0.9102993 0.070071407 1.9917984
-0.80488479 0.070910946 2.0156617
-0.779908 0.070599891 2.0068202
-0.71995413 0.067782171 1.9267251
-0.7021783 0.067656577 1.9231547
-0.71753269 0.069955051 1.9884893
-0.69321525 0.068806857 1.955853
-0.62973142 0.068721868 1.9534373
-0.47210869 0.061270114 1.7416189
-0.48265597 0.065209761 1.8536041
