# .PCD v0.7 - Point Cloud Data file format
VERSION 0.7
FIELDS x y z
SIZE 4 4 4
TYPE F F F
COUNT 1 1 1
WIDTH 1367
HEIGHT 1
VIEWPOINT 0 0 0 1 0 0 0
POINTS 1367
DATA ascii
0.394997 -0.1672091 0.78366107
-0.50173467 -0.15450194 0.74928445
-0.48817 -0.15422316 0.74691731
-0.4753094 -0.15181555 0.73084134
-0.44762099 -0.1547662 0.74872357
-0.43901822 -0.15483682 0.74881881
-0.39573762 -0.16166575 0.79107642
-0.34447339 -0.15361014 0.73694324
-0.33258399 -0.15706792 0.75876021
-0.16890873 -0.15142001 0.71545756
-0.1511111 -0.14722846 0.68766218
-0.15434074 -0.15303513 0.72527051
-0.15299024 -0.15331517 0.7270208
-0.13907261 -0.15610629 0.74445045
-0.13420095 -0.15447965 0.73374903
-0.13335456 -0.15539046 0.73959142
-0.10859685 -0.15127786 0.71201396
-0.10197681 -0.1560967 0.74283504
-0.050356075 -0.15711007 0.74721307
0.10354447 -0.14991979 0.69436616
0.14767726 -0.15086749 0.69863355
0.1546365 -0.15042411 0.69548094
0.15771753 -0.15141238 0.70172971
0.11108244 -0.1183455 0.49028817
0.12017111 -0.11980634 0.49933514
-0.46545511 -0.15230066 0.74346298
-0.43192992 -0.15328911 0.74848783
-0.42118302 -0.16106133 0.79881698
-0.39256239 -0.15836199 0.77995288
-0.36399117 -0.15409921 0.75087428
-0.34164292 -0.15044081 0.7260114
-0.33399019 -0.15962911 0.78572714
-0.32342836 -0.16054901 0.79128623
-0.18587051 -0.15277582 0.7346046
-0.13909221 -0.15118162 0.72218543
-0.11291908 -0.14915712 0.70783597
-0.10665143 -0.15167929 0.72404933
-0.058003541 -0.15297106 0.73040885
-0.056462537 -0.15335836 0.73287356
-0.043395277 -0.15405791 0.73688585
-0.026851296 -0.15236032 0.72508436
-0.0029095374 -0.15035658 0.71096641
0.093343958 -0.15203951 0.71784484
0.10353301 -0.15267186 0.7215414
0.11350678 -0.15304932 0.72358078
0.11485554 -0.15284561 0.72219217
0.14265235 -0.15019371 0.70367312
0.14986347 -0.14887145 0.6947242
0.15171111 -0.14908054 0.69601154
0.15815933 -0.14929944 0.69716609
0.11402361 -0.11711849 0.4887619
0.11870851 -0.11668146 0.48570541
0.39310011 -0.16399033 0.78311306
-0.45322165 -0.15127259 0.7462821
-0.45418307 -0.15299012 0.75769061
-0.43006897 -0.15274389 0.75500679
-0.41513568 -0.15695348 0.78221327
-0.39283669 -0.1568522 0.78056759
-0.37416035 -0.15422292 0.76235032
-0.36116371 -0.15595214 0.77322584
-0.34925741 -0.15423137 0.76131713
-0.17549202 -0.14611501 0.70000446
-0.16853526 -0.14570217 0.69696796
-0.16367631 -0.14564873 0.69640195
-0.1616694 -0.14793921 0.71147269
-0.14263496 -0.14837773 0.71354222
-0.055117406 -0.15312639 0.74114221
-0.011135673 -0.14664461 0.69632208
-0.0080225542 -0.14659092 0.69583082
0.065706022 -0.15177609 0.72692239
0.10554077 -0.15016466 0.71451622
0.10732908 -0.15035075 0.71566957
0.13227539 -0.15019836 0.71357018
0.11392477 -0.1160407 0.48831543
0.11869212 -0.11626819 0.48961246
0.11876502 -0.11392371 0.47409326
0.37650764 -0.15984738 0.76674789
-0.47785509 -0.14577392 0.72084337
-0.46924326 -0.15160711 0.75956184
-0.43693337 -0.15161541 0.7581737
-0.42897016 -0.15189995 0.75972521
-0.41849941 -0.15305232 0.7669822
-0.41961432 -0.15559158 0.78405416
-0.34435683 -0.1534854 0.766572
-0.31062725 -0.15502499 0.77538526
-0.3102605 -0.15717143 0.78975761
-0.18482979 -0.14232303 0.68461514
-0.17982286 -0.14783703 0.72135472
-0.1711904 -0.14754914 0.71903926
-0.14633229 -0.14886867 0.72677416
-0.14162308 -0.14912112 0.72825581
-0.11539165 -0.14737093 0.71535069
-0.10787725 -0.14819698 0.7205525
-0.044818692 -0.14991395 0.72924441
-0.02188684 -0.15131316 0.73759907
-0.011112974 -0.14526598 0.69658023
0.054711733 -0.15067972 0.72992986
0.066869773 -0.14972411 0.72298062
0.082248755 -0.14908859 0.71803313
0.1073396 -0.14889203 0.71559393
0.13400169 -0.1488532 0.7141422
0.14839312 -0.14804055 0.70805144
0.1592693 -0.14620183 0.69523925
0.11230675 -0.11471716 0.48627853
0.11697083 -0.11550863 0.49137563
0.38273239 -0.15970778 0.77579105
-0.47657147 -0.14356002 0.71588421
-0.48444253 -0.1471405 0.74055952
-0.47312501 -0.14919253 0.75397891
-0.43976477 -0.1493527 0.75354308
-0.43598992 -0.15029059 0.75973988
-0.42408627 -0.15099797 0.76400006
-0.42112777 -0.15066108 0.76157713
-0.42001328 -0.15354869 0.78113681
-0.41873568 -0.1542722 0.78599244
-0.4063454 -0.15618934 0.79844636
-0.36963159 -0.15258732 0.77230692
-0.33387014 -0.15405989 0.78067422
-0.18691552 -0.14445558 0.70873564
-0.18836711 -0.14885896 0.73870689
-0.15773305 -0.14316939 0.698668
-0.15763554 -0.14575307 0.71621019
-0.14644983 -0.14750443 0.72759306
-0.14176482 -0.147783 0.72927111
-0.12781817 -0.15269022 0.76196069
-0.1205699 -0.14820375 0.73116052
-0.11701086 -0.1459187 0.71547931
-0.10642662 -0.14699881 0.72233105
-0.023522509 -0.14966665 0.73666281
-0.0048234831 -0.14400026 0.69732636
0.081838511 -0.15058579 0.73809236
0.080542065 -0.14748366 0.71708429
0.088317782 -0.1473439 0.71577984
0.11515194 -0.14737834 0.71478784
0.11782705 -0.1470129 0.71218389
0.15130509 -0.14551024 0.70044965
0.15422118 -0.14541817 0.69969112
0.11763854 -0.11134242 0.46994245
-0.48490712 -0.1452971 0.73843026
-0.46876353 -0.14881125 0.76185888
-0.45492065 -0.14802501 0.75580221
-0.44441721 -0.14809009 0.75575984
-0.42913437 -0.14932302 0.76353061
-0.41783121 -0.14866064 0.75844479
-0.41944236 -0.1512356 0.77623928
-0.41017157 -0.15400007 0.79482973
-0.35752678 -0.15056178 0.76871169
-0.35146332 -0.1529019 0.78453207
-0.33534741 -0.15031587 0.76598388
-0.34453174 -0.15440363 0.79454243
-0.34029216 -0.15350723 0.7881763
-0.31267107 -0.15122697 0.77119493
-0.17342709 -0.14150628 0.69780141
-0.16942294 -0.14209791 0.70168585
-0.043377597 -0.14838484 0.73906404
-0.028368268 -0.14514074 0.7160393
-0.026787721 -0.14695272 0.72843438
-0.025154684 -0.14762674 0.7329964
-0.0061676148 -0.14372233 0.70524192
0.063215449 -0.14820597 0.73285645
0.066738248 -0.14658339 0.72152638
0.077216282 -0.1441582 0.70434839
0.07920099 -0.14460465 0.70732808
0.080128513 -0.14394855 0.70276976
0.087334007 -0.14491481 0.70908231
0.09775956 -0.14584784 0.71501625
0.10576358 -0.14595658 0.7153911
0.1090389 -0.14606027 0.71595156
0.113558 -0.14589623 0.71461165
0.14095393 -0.14433634 0.70259827
0.15342398 -0.14350592 0.69630164
0.11765203 -0.1103664 0.46992439
0.1213229 -0.11063356 0.47159129
-0.48718968 -0.14185317 0.72516984
-0.48602897 -0.14238988 0.72885764
-0.48639995 -0.14453992 0.74386954
-0.46682256 -0.14720623 0.76152974
-0.46402955 -0.14741649 0.76286268
-0.45572117 -0.14808317 0.76711571
-0.44905478 -0.14921933 0.77472109
-0.36397356 -0.1505654 0.78004783
-0.34278741 -0.14949267 0.77155536
-0.33580676 -0.14762089 0.75816834
-0.33904833 -0.14944167 0.77102107
-0.32290176 -0.15013598 0.77509284
-0.31349534 -0.15215889 0.78875142
-0.31501013 -0.15428048 0.80361968
-0.18226697 -0.13647622 0.67311764
-0.10635491 -0.14399329 0.72191811
-0.015253571 -0.14655632 0.73544461
0.035922825 -0.14163516 0.69868207
0.14867674 -0.14387803 0.70894212
0.37551326 -0.15339006 0.76445228
-0.49121448 -0.13969418 0.72071928
-0.49576861 -0.14310956 0.74508476
-0.49029669 -0.1439105 0.7504797
-0.48791119 -0.14377157 0.74938112
-0.47360629 -0.1450785 0.75792181
-0.4720549 -0.14603378 0.76459908
-0.46157232 -0.14801195 0.77807128
-0.45193943 -0.14838777 0.78025788
-0.4408645 -0.14838527 0.77969968
-0.37760597 -0.14806783 0.77436888
-0.33757159 -0.14863004 0.77638978
-0.32530758 -0.14877705 0.77683043
-0.19404909 -0.14364623 0.7341553
-0.16531336 -0.13858299 0.69696075
-0.14926474 -0.14557809 0.74562633
-0.13468558 -0.13679601 0.68283403
-0.12238465 -0.1439458 0.73277622
-0.016920254 -0.14454223 0.73184592
-0.0075460798 -0.14184824 0.71234447
0.012695934 -0.1406164 0.70264888
0.038688414 -0.14492558 0.73184228
0.053913012 -0.14355525 0.72141248
0.074406877 -0.13994223 0.6948719
0.093165658 -0.14161791 0.70580178
0.11404514 -0.1433457 0.71699709
0.11593763 -0.1423908 0.71015406
0.1335261 -0.14164665 0.70403558
0.15030393 -0.14061637 0.695934
0.15227929 -0.14088523 0.69773823
0.15326934 -0.14056906 0.6954549
0.15451753 -0.14040941 0.69426519
0.10511156 -0.10786114 0.46659076
0.10985126 -0.10931108 0.47660932
0.37611979 -0.15202941 0.76559395
-0.49385458 -0.13916746 0.72777879
-0.49531987 -0.13988121 0.7329669
-0.49908075 -0.14191133 0.74770391
-0.50149834 -0.14326943 0.75755769
-0.48400161 -0.14256325 0.75162345
-0.48087707 -0.1426724 0.75224978
-0.46631983 -0.14714435 0.78357285
-0.46264821 -0.14763166 0.7868824
-0.44468904 -0.14632897 0.77665037
-0.33735177 -0.14696129 0.77582616
-0.31954393 -0.14914867 0.79061413
-0.18845329 -0.13659239 0.69408566
0.0071922312 -0.14168032 0.7207877
0.037320055 -0.1438524 0.73485124
0.038612694 -0.14327873 0.73067522
0.042420324 -0.14161521 0.71856332
0.053094659 -0.14096011 0.71333569
0.077487722 -0.13851571 0.69460052
0.13954154 -0.13913703 0.69595701
0.1470944 -0.13909586 0.69528496
0.15556876 -0.13872382 0.69219583
0.11749241 -0.10733734 0.46915701
0.38869491 -0.15314691 0.78393048
-0.50018984 -0.13827375 0.73256075
-0.48517439 -0.14425871 0.7752887
-0.47805291 -0.14387906 0.77216649
-0.47235042 -0.14564133 0.78468192
-0.46082333 -0.1474603 0.7973128
-0.44395462 -0.14599231 0.78578424
-0.4375993 -0.14831686 0.80235243
-0.35910791 -0.14536715 0.77691174
-0.3503128 -0.14733948 0.79079574
-0.34632543 -0.14659768 0.78520167
-0.3445408 -0.14661419 0.78523099
-0.32174048 -0.14172101 0.74850762
-0.32478577 -0.14540514 0.77543634
-0.30733827 -0.14355788 0.76112169
-0.30829906 -0.14744036 0.78938556
-0.160319 -0.13559599 0.69575959
-0.15075034 -0.13955688 0.72405571
-0.14059436 -0.13933933 0.72195679
-0.10205568 -0.14277695 0.74497205
-0.041692216 -0.1426577 0.74102575
-0.025084324 -0.13982791 0.71961308
-0.021840435 -0.14034149 0.72318017
0.020219088 -0.14056858 0.72268426
0.021553829 -0.13995288 0.7181415
0.035731778 -0.14240344 0.73522711
0.050424326 -0.14017084 0.71825266
0.056515463 -0.13782589 0.70090097
0.15657048 -0.13618685 0.68388402
0.10975657 -0.10670446 0.47201854
-0.50475192 -0.14005466 0.7571066
-0.51175451 -0.1432133 0.78075308
-0.50541419 -0.14221804 0.77308637
-0.48796827 -0.13994585 0.75542909
-0.42512867 -0.13765875 0.73529261
-0.44926062 -0.14724565 0.80721223
-0.37314448 -0.14417616 0.78061652
-0.34021142 -0.14352022 0.77406275
-0.33283481 -0.14159785 0.75950938
-0.1935969 -0.13490225 0.70289302
-0.17416905 -0.14057094 0.74366063
-0.15960847 -0.13726762 0.71855313
-0.15553133 -0.13794041 0.72329915
-0.11541935 -0.13373053 0.6901772
-0.1145274 -0.13813029 0.72255903
-0.10918663 -0.1376242 0.71855009
-0.10347532 -0.1409184 0.74253184
-0.038251132 -0.14037399 0.73511565
-0.025067125 -0.13785487 0.71586061
0.00086007646 -0.13903362 0.72319537
0.040996652 -0.13890465 0.72015047
0.047096197 -0.13848394 0.71673131
0.11104276 -0.10751606 0.4851447
0.38827598 -0.14942747 0.77958578
0.40348947 -0.1517725 0.79607588
-0.49174762 -0.13882132 0.75889117
-0.48513761 -0.14277683 0.78811318
-0.47502866 -0.14171736 0.77965182
-0.46159551 -0.14343527 0.79177934
-0.46101168 -0.14375699 0.79415351
-0.4388068 -0.14004327 0.76520157
-0.34105071 -0.14100406 0.76716697
-0.1129861 -0.13678764 0.72346717
-0.026652258 -0.13611321 0.71381563
0.0026563019 -0.1381616 0.72756684
0.032073721 -0.138642 0.72958839
0.053314306 -0.13682048 0.7148357
0.12733497 -0.133881 0.68890613
0.13119909 -0.13346016 0.68555319
0.39249653 -0.14856011 0.78450459
-0.49021119 -0.1397596 0.77781743
-0.49382669 -0.14099266 0.78736979
-0.45851588 -0.1342241 0.73409307
-0.48449686 -0.14100517 0.78695482
-0.47541985 -0.14151467 0.79032451
-0.44987392 -0.1426366 0.79744047
-0.45319086 -0.14542978 0.818811
-0.44026604 -0.14357308 0.80402005
-0.3635532 -0.14198709 0.7877987
-0.3374297 -0.14002132 0.7714597
-0.30284268 -0.14122 0.77866441
-0.18483561 -0.13361229 0.71450567
-0.17061251 -0.13180125 0.69998997
-0.16806066 -0.13335969 0.71167338
-0.15957408 -0.13195319 0.70053965
-0.12307861 -0.13554338 0.72578293
-0.11757712 -0.13495304 0.72100413
-0.0043833032 -0.13404773 0.70795465
0.043912899 -0.13551383 0.71643913
0.052591737 -0.13246292 0.69282025
0.11710998 -0.10803486 0.50397927
-0.52048528 -0.13747405 0.77426392
-0.51604545 -0.13810013 0.77883595
-0.49673668 -0.13959654 0.78927785
-0.46470883 -0.14002094 0.79075575
-0.46192414 -0.14025453 0.79239833
-0.45481151 -0.14222437 0.80716664
-0.45824683 -0.14552638 0.83278096
-0.44111037 -0.14362402 0.81717706
-0.36520317 -0.14088382 0.79183924
-0.34995499 -0.13897668 0.77630383
-0.33745149 -0.13844688 0.77152604
-0.31245556 -0.13788 0.76576513
-0.30445811 -0.1402338 0.78344029
-0.17306471 -0.13091673 0.70436662
-0.1594048 -0.13040552 0.69966751
-0.13001031 -0.13437293 0.72856963
-0.12867989 -0.13468887 0.73092794
-0.12285662 -0.13385081 0.72415042
-0.10839525 -0.13234854 0.71177644
-0.0048241247 -0.13046093 0.69145656
0.038914487 -0.13368523 0.71383619
0.041094217 -0.13457371 0.72055459
0.043965913 -0.13410568 0.71679109
0.11707409 -0.10323066 0.47500041
0.13258108 -0.10792765 0.51029599
0.12557864 -0.10421444 0.48209921
0.38168335 -0.14384957 0.77293777
0.39536947 -0.14573114 0.78665936
0.39627856 -0.14553604 0.78510654
-0.52153039 -0.1376209 0.78797007
-0.5175463 -0.13797168 0.79048383
-0.45874414 -0.13921411 0.79683107
-0.35022879 -0.1380455 0.78149301
-0.35257882 -0.13937309 0.79200256
-0.32255769 -0.13732153 0.77425259
-0.32181373 -0.13768826 0.77707636
-0.31057841 -0.13886707 0.7856465
-0.30688816 -0.13885464 0.78533804
-0.1838899 -0.13013159 0.71013367
-0.12105411 -0.13059513 0.71016324
-0.12281347 -0.13400671 0.73692542
-0.099182963 -0.1359704 0.75092077
-0.044801336 -0.13444743 0.73590869
-0.00063298043 -0.13334401 0.72476
0.028471528 -0.13057767 0.70147645
0.047317225 -0.12874725 0.68609416
0.067270733 -0.13048619 0.69854313
0.11900152 -0.10469245 0.49400529
0.12769628 -0.10515391 0.49711436
0.39090225 -0.14385079 0.784482
-0.49190944 -0.13530765 0.78078324
-0.46737361 -0.13523862 0.77879959
-0.19220841 -0.13158718 0.73372173
-0.18320931 -0.12733386 0.69944608
-0.10043311 -0.12764813 0.69709504
-0.099676065 -0.1351209 0.75634515
-0.048071746 -0.13285285 0.73532844
0.010956049 -0.13253821 0.72937745
0.01602214 -0.13298716 0.73264301
0.021865578 -0.13159584 0.72126085
0.047060214 -0.12511289 0.66834575
0.11774318 -0.10106646 0.47340712
-0.51897722 -0.1346145 0.78979737
-0.44727066 -0.13590679 0.79591453
-0.44428131 -0.13655299 0.80094272
-0.3615391 -0.13492966 0.78290433
-0.33976296 -0.13500477 0.78220493
-0.32882938 -0.13325089 0.76741648
-0.32219177 -0.13463132 0.77814275
-0.3207469 -0.13475667 0.77906621
-0.31788817 -0.13502182 0.78103155
-0.31290728 -0.1358265 0.7872172
-0.1806248 -0.1282115 0.71792883
-0.1785154 -0.12893943 0.7236684
-0.17646278 -0.12869939 0.7216112
-0.11490608 -0.12976119 0.72647893
-0.11255077 -0.12900838 0.72027177
-0.10258578 -0.13294882 0.75142705
-0.044755653 -0.1313964 0.73545253
-0.042995617 -0.13082579 0.73074943
-0.039691716 -0.13070309 0.72956258
-0.0024020057 -0.1296239 0.71863174
-0.00071784254 -0.12992345 0.7209447
0.0086702341 -0.1291756 0.71435606
0.012492212 -0.13077936 0.7270503
0.11770025 -0.10005753 0.47318619
0.39288685 -0.14037164 0.78155529
-0.52109987 -0.13265508 0.78722858
-0.44819093 -0.13493083 0.80138391
-0.44005352 -0.13526057 0.80358404
-0.43179369 -0.13604298 0.80948156
-0.34530592 -0.13397944 0.78728491
-0.33176842 -0.13203645 0.77055049
-0.31269526 -0.13351685 0.78149807
-0.14583781 -0.1291168 0.73524559
-0.046302702 -0.12949879 0.73226619
-0.0094957668 -0.12430644 0.6875065
0.078356095 -0.11894231 0.63820922
0.12368774 -0.10323971 0.50689536
0.11740281 -0.098935902 0.47205234
0.39312264 -0.13886091 0.78194261
-0.51410729 -0.12721986 0.75510025
-0.51431119 -0.12864983 0.76700568
-0.52112788 -0.13103451 0.78726733
-0.50858033 -0.13042933 0.78144574
-0.5008446 -0.13038491 0.78059036
-0.49554044 -0.13121307 0.78714496
-0.49677238 -0.13263434 0.799043
-0.46977162 -0.13469315 0.81446952
-0.4315308 -0.13339169 0.80124307
-0.35879594 -0.13198866 0.78500468
-0.34670892 -0.13113356 0.77713382
-0.33273086 -0.13075463 0.77310371
-0.18309201 -0.12037223 0.67735416
-0.18486159 -0.12218578 0.69254857
-0.17850101 -0.12405334 0.70768112
-0.17856874 -0.12701409 0.73230952
-0.16428076 -0.1253826 0.71784294
-0.15639563 -0.12234189 0.69205827
-0.15103085 -0.13027114 0.75766802
-0.12659638 -0.12843017 0.74082178
-0.11432165 -0.12793159 0.73590422
-0.10689963 -0.12528712 0.71344393
-0.10366514 -0.12917607 0.74558473
-0.081406049 -0.12862913 0.73963761
-0.075099222 -0.1293412 0.74516344
-0.065715447 -0.12712753 0.72616333
-0.064182296 -0.12737823 0.72815228
0.089613877 -0.11562501 0.62073964
0.11619993 -0.097882129 0.4715043
0.3913933 -0.13767257 0.78514838
-0.50672054 -0.1295547 0.78756934
-0.44870979 -0.13175227 0.80241168
-0.44658843 -0.1317036 0.80186415
-0.44697365 -0.13311754 0.81384039
-0.43809834 -0.13239379 0.8071515
-0.43266159 -0.13246699 0.80742061
-0.35946849 -0.13383423 0.81426734
-0.35549545 -0.13322268 0.8088429
-0.32579052 -0.12983452 0.77829242
-0.15431416 -0.12060609 0.68925387
-0.13160101 -0.12014501 0.68389529
-0.12802859 -0.12670274 0.73909509
-0.013447571 -0.12650886 0.73008311
-0.0072934553 -0.12462136 0.71373278
0.012441825 -0.12608474 0.72483212
0.023722047 -0.12605178 0.72382778
0.026317658 -0.12496355 0.71446258
0.030852078 -0.12459052 0.71101731
0.07968317 -0.11964642 0.66608483
0.11356407 -0.097125873 0.47354758
-0.50690258 -0.12760055 0.78475463
-0.5088709 -0.12870927 0.7944116
-0.49666974 -0.12818669 0.78911656
-0.48588836 -0.13227817 0.82356316
-0.47315606 -0.13041134 0.80668259
-0.47393698 -0.13182038 0.81884176
-0.3571572 -0.12830906 0.78097093
-0.32399797 -0.12768583 0.77342945
-0.17960894 -0.1217817 0.71317732
-0.15593839 -0.12463327 0.73612016
-0.12941419 -0.12641504 0.74968177
-0.082075588 -0.12673886 0.74934411
-0.078962758 -0.12439122 0.72896576
-0.0041536908 -0.12286389 0.71090972
-0.00051854737 -0.12450692 0.72478855
0.015595164 -0.12439899 0.72279853
0.017438211 -0.1248871 0.72687149
0.046742473 -0.11955652 0.67913455
0.078910619 -0.11766313 0.66074425
0.089980848 -0.11425424 0.63072258
0.0886911 -0.1106371 0.59972602
0.11655977 -0.096064717 0.47267058
0.39024132 -0.13424619 0.78271568
-0.49009824 -0.12565105 0.78073847
-0.48967382 -0.12630296 0.78640652
-0.47090611 -0.12868339 0.8059386
-0.46484768 -0.12944548 0.81218851
-0.35617626 -0.12643643 0.77855468
-0.33876309 -0.1294395 0.80361873
-0.15476765 -0.1223506 0.72924709
-0.10413838 -0.12148777 0.71828777
-0.087126769 -0.12518466 0.74944144
-0.083608411 -0.12498847 0.74748963
-0.080088586 -0.12476133 0.7452668
-0.0698976 -0.12457551 0.74295473
-0.0072718482 -0.12164269 0.71309775
0.051528197 -0.12010404 0.69568086
0.055374652 -0.11929011 0.68830913
0.12018415 -0.095271029 0.47405657
0.12814684 -0.097207911 0.49044269
0.40299594 -0.13410433 0.79426986
0.40628248 -0.13447766 0.79731005
-0.49563643 -0.12401885 0.7809363
-0.49130487 -0.12536006 0.79255718
-0.48545888 -0.12570758 0.795241
-0.48257446 -0.12551549 0.79333401
-0.49009582 -0.12738048 0.81043029
-0.15352528 -0.11688969 0.69388622
-0.11822802 -0.11944424 0.71414644
-0.11371617 -0.11827108 0.70340723
-0.082088195 -0.1237544 0.74995214
-0.077223234 -0.12132039 0.72798228
0.00061051879 -0.11982888 0.7093367
0.012352196 -0.12132525 0.72182363
0.021568252 -0.12054148 0.71421915
0.079625793 -0.11123129 0.62745214
0.088361591 -0.1124467 0.6376493
-0.50789469 -0.12257477 0.78332645
-0.49057019 -0.12322627 0.78798825
-0.48097134 -0.12544453 0.80736673
-0.47578645 -0.12595765 0.81163889
-0.35072294 -0.12325449 0.77831626
-0.34058404 -0.12198137 0.76608425
-0.34244198 -0.12505555 0.79401606
-0.14230539 -0.11436224 0.6831094
-0.14177075 -0.11729539 0.70959568
-0.13739182 -0.11887615 0.72357988
-0.1366002 -0.12080675 0.74098229
-0.12402327 -0.11738746 0.70916831
-0.11867777 -0.11696481 0.70496702
-0.11614905 -0.11758967 0.71043855
-0.11036606 -0.11826937 0.71617442
-0.10851227 -0.11804944 0.71405375
-0.10289279 -0.11726927 0.70659977
-0.10229405 -0.12014785 0.73258841
-0.099852696 -0.12314434 0.75951254
-0.094916247 -0.1234284 0.76173097
-0.069206797 -0.12027919 0.73142749
-0.041019026 -0.11928198 0.72040868
-0.036244527 -0.1199486 0.72609794
-0.03471731 -0.12088709 0.73447669
-0.018225325 -0.12124974 0.73658508
-0.01190235 -0.11953648 0.72064352
0.0020415902 -0.11785825 0.70447707
0.0037705877 -0.11829869 0.70833772
0.010784741 -0.11991184 0.72242749
0.01257453 -0.12031405 0.72593772
0.041335344 -0.11799949 0.7029655
0.08881101 -0.10699245 0.60005814
0.11397094 -0.094229706 0.48285818
0.12384141 -0.093486138 0.47543347
0.38486168 -0.12868045 0.77516854
0.33691049 -0.10659146 0.57882088
0.38138112 -0.10938965 0.60096818
0.38788432 -0.11011264 0.60704434
-0.49305362 -0.12460563 0.81582648
-0.4462533 -0.12419228 0.80861527
-0.44278854 -0.12427606 0.80913472
-0.4359099 -0.12404044 0.80646491
-0.32733247 -0.12391526 0.79740942
-0.16902101 -0.114652 0.70062822
-0.14673342 -0.11379465 0.69111502
-0.13611256 -0.1176846 0.72614443
-0.0999652 -0.12174422 0.76087701
-0.095106028 -0.1221314 0.7640872
-0.084008083 -0.11865647 0.73129678
-0.081569023 -0.11996727 0.74318337
-0.041219775 -0.11894643 0.7308507
-0.034704182 -0.11943068 0.73483342
-0.024815127 -0.11893333 0.72953594
0.0089584189 -0.11787688 0.71735394
0.01056037 -0.11787979 0.71726441
0.018028863 -0.11688932 0.70760494
0.037122667 -0.11514951 0.69020164
0.080484636 -0.1082738 0.62376308
0.083016425 -0.10905717 0.63078862
0.08773984 -0.11034004 0.64225227
0.11407646 -0.091535762 0.46726361
0.34037587 -0.10754012 0.59809226
0.38847896 -0.10990106 0.61632031
0.3932966 -0.1100742 0.61756337
-0.47017914 -0.12460985 0.82989752
-0.33039552 -0.12316327 0.8059054
-0.18870229 -0.11255379 0.69591135
-0.18072593 -0.11506724 0.71886766
-0.17700504 -0.11485653 0.71661544
-0.16378124 -0.11391357 0.70679241
-0.15973715 -0.11345683 0.70221061
-0.15671487 -0.11263218 0.6942575
-0.14191213 -0.11562063 0.72115499
-0.13430798 -0.11489403 0.71377891
-0.12159432 -0.11384825 0.70303005
-0.11161299 -0.11500941 0.71316564
-0.099693798 -0.11990334 0.75813365
-0.065555952 -0.11666568 0.72524661
-0.057961889 -0.11816393 0.73871887
-0.037931416 -0.11755902 0.73155463
-0.03626164 -0.11737186 0.72967649
-0.019850168 -0.1180758 0.7350474
-0.010136236 -0.11723319 0.72642654
0.038840462 -0.11394423 0.69195074
0.050534591 -0.11032548 0.65716863
0.086165875 -0.10708947 0.6241852
0.11674619 -0.094254605 0.50163406
0.1168108 -0.09164159 0.4771443
0.38412476 -0.12540404 0.77355361
0.40290186 -0.12735683 0.79044968
0.40691122 -0.12750936 0.79157984
0.34078056 -0.1049706 0.58532023
0.36406678 -0.10770117 0.60916787
0.36797836 -0.10818977 0.61345446
0.37088472 -0.10825326 0.61383224
-0.50369239 -0.11700237 0.77614343
-0.49231508 -0.11831864 0.78783321
-0.48787436 -0.11820539 0.78641224
-0.43371883 -0.12147884 0.81350279
-0.34721813 -0.12195949 0.81146312
-0.34620991 -0.12324965 0.82369781
-0.16970688 -0.11215123 0.70426261
-0.16747351 -0.11182494 0.70097756
-0.1570601 -0.11141235 0.69624281
-0.11179403 -0.11522944 0.72920209
-0.075585261 -0.11549401 0.72895324
-0.054249648 -0.11565155 0.72882205
-0.044510078 -0.11611199 0.7324701
-0.041161411 -0.11584786 0.72969294
-0.036302079 -0.11630516 0.7336849
-0.0037762749 -0.11517286 0.72038782
0.048666164 -0.11156072 0.68189865
0.075370423 -0.10409027 0.6085611
0.33918864 -0.10440895 0.5913927
0.33735695 -0.10336801 0.58159882
0.34589696 -0.10427413 0.58959174
0.34908086 -0.10463476 0.59278923
0.36950245 -0.10722344 0.61592931
0.37533513 -0.10758052 0.61889023
0.39256647 -0.1092613 0.63361031
0.38830766 -0.10827863 0.62455857
0.39422551 -0.10818053 0.62316906
0.39797533 -0.10771719 0.61845988
0.40705678 -0.10627073 0.60396069
-0.49663395 -0.11778005 0.79874402
-0.4475646 -0.11985163 0.81502718
-0.33612189 -0.12091787 0.81663156
-0.33336708 -0.12068611 0.81416214
-0.1380882 -0.11233269 0.71759301
-0.077192366 -0.11396344 0.72866023
-0.075861514 -0.11446171 0.73340011
-0.062946901 -0.11518698 0.73943615
-0.034593541 -0.11445609 0.73010123
-0.01325029 -0.11495834 0.73330617
-0.0069587259 -0.11380371 0.72158569
-0.00061011227 -0.11347358 0.71787673
0.073895827 -0.10184205 0.59893221
0.086530976 -0.10225616 0.60196519
0.11804745 -0.089317858 0.4736951
0.1228305 -0.089919686 0.4791705
0.13573098 -0.093835391 0.51622623
0.36662284 -0.10831243 0.63882589
0.34851766 -0.10355335 0.59397924
0.35233957 -0.10379585 0.59603643
0.37272629 -0.10655154 0.62122566
0.38942575 -0.10698387 0.62411612
0.39631251 -0.10597272 0.6137439
0.39694235 -0.10523614 0.60653293
0.39754322 -0.10512812 0.60543549
-0.4920426 -0.11342207 0.77151555
-0.48501208 -0.11255687 0.76237488
-0.48754978 -0.11556233 0.79236007
-0.3551119 -0.11680136 0.79394722
-0.14492992 -0.1131755 0.74105591
-0.11975236 -0.1106538 0.7140373
-0.11230588 -0.11272796 0.73398799
-0.10483161 -0.113593 0.74195582
-0.097951829 -0.11529341 0.75824952
-0.083930947 -0.11266542 0.73107827
-0.03784566 -0.11288224 0.72950703
-0.032986451 -0.11347797 0.7350173
-0.018206606 -0.11294237 0.72851765
-0.013265511 -0.11324524 0.73111987
-0.0022516206 -0.11182812 0.71618909
0.00098810031 -0.11193875 0.71702373
0.087462425 -0.10317651 0.62322259
0.11837926 -0.088450864 0.47481677
0.35485899 -0.10393784 0.60918409
0.37756968 -0.10479349 0.61582923
0.39529997 -0.10540818 0.62048906
0.4004851 -0.10499749 0.61600131
-0.48938483 -0.1142388 0.79565513
-0.4897038 -0.11462193 0.79955208
-0.45510241 -0.11499361 0.800439
-0.45742545 -0.11651331 0.81598341
-0.46150109 -0.11765109 0.82781529
-0.44894776 -0.1182981 0.83331072
-0.35481474 -0.11376033 0.77966774
-0.34975657 -0.11761647 0.81820321
-0.33749691 -0.11743184 0.81532204
-0.33280757 -0.11720488 0.81264073
-0.1857993 -0.10772444 0.70468354
-0.13795561 -0.10932312 0.7168678
-0.059440147 -0.11186916 0.73608011
-0.055904865 -0.11134121 0.73045373
-0.014877979 -0.11180383 0.73172677
-0.011816535 -0.11059671 0.71927875
-0.0052861106 -0.1109462 0.72226781
0.08626274 -0.099613279 0.60019404
0.11601495 -0.086979523 0.47010091
0.12992863 -0.089662753 0.49605402
0.33665413 -0.10561428 0.6400618
0.3302294 -0.10143877 0.59841311
0.34003899 -0.10302322 0.61360651
0.36242238 -0.10291425 0.61065036
0.36914271 -0.10363764 0.617401
-0.50779563 -0.11092836 0.78002572
-0.49273494 -0.1097431 0.76653123
-0.45044762 -0.11725932 0.84037185
-0.35238361 -0.11334118 0.79165244
-0.34648088 -0.11512809 0.80956054
-0.3404443 -0.1145716 0.8033132
-0.18587276 -0.1055987 0.69770187
-0.18608822 -0.10640875 0.70606649
-0.1414813 -0.11012816 0.74059021
-0.13094395 -0.10540006 0.69097781
-0.095579684 -0.11153046 0.75112963
-0.083273388 -0.10888739 0.72284967
-0.07876499 -0.10945605 0.72832507
-0.075789541 -0.10993569 0.73301333
-0.067354269 -0.10968365 0.72969818
-0.0081717651 -0.11093526 0.73755473
0.040295176 -0.10669963 0.68978733
0.043549664 -0.10689878 0.69156188
0.046025034 -0.10482469 0.66998166
0.11935551 -0.086814865 0.47817871
0.12120637 -0.086354941 0.47328228
0.39732489 -0.11897468 0.78585899
0.35420334 -0.10316404 0.6266306
0.35908335 -0.1035668 0.63036466
0.35915363 -0.102212 0.61639994
0.35948494 -0.1018264 0.61239862
0.38762656 -0.10418684 0.63432276
0.40033564 -0.10497915 0.64140373
0.40779108 -0.10469138 0.63780367
-0.4849059 -0.10930176 0.77787328
-0.49462378 -0.11212721 0.80842608
-0.46602592 -0.11616993 0.848423
-0.45147383 -0.11534824 0.83851194
-0.45114762 -0.11604756 0.84583473
-0.35900286 -0.11194185 0.7946108
-0.35532859 -0.11514416 0.82795388
-0.33458659 -0.11194543 0.792512
-0.146631 -0.10865234 0.7414465
-0.11263883 -0.10716178 0.72280234
-0.095692664 -0.11013412 0.75256693
-0.071449071 -0.10948637 0.74363595
-0.059387617 -0.10882552 0.73563325
-0.0064762984 -0.10954609 0.73857844
0.00065057341 -0.10647333 0.70565236
0.043741528 -0.10566526 0.69338703
0.045780454 -0.10465304 0.68256748
0.11395238 -0.085776716 0.47816375
0.39679152 -0.11793083 0.79143715
0.35775283 -0.099653311 0.60270947
0.39190066 -0.1036028 0.64124078
0.39634076 -0.10180544 0.62195742
0.39855382 -0.10175062 0.62118721
0.39956984 -0.10151047 0.61857396
-0.50143015 -0.10848064 0.7877928
-0.45932281 -0.11077965 0.80867493
-0.45719081 -0.11356653 0.83838844
-0.35826108 -0.11321908 0.8257609
-0.33485615 -0.11038544 0.79324859
-0.17637965 -0.10283963 0.69802213
-0.17033598 -0.10380348 0.70782113
-0.11238047 -0.10548666 0.72066933
-0.081435442 -0.10783187 0.74305153
-0.079719819 -0.10778978 0.74244583
-0.063099563 -0.10809956 0.74427426
-0.045906812 -0.1066364 0.7270276
-0.031156007 -0.10620429 0.72106385
-0.018224157 -0.10608801 0.71865261
0.11830917 -0.085561886 0.48611328
0.12131388 -0.086232133 0.49303508
0.38669717 -0.11502517 0.77813059
0.3396188 -0.10201934 0.64280462
0.3521333 -0.10163368 0.63754058
0.34407893 -0.098882563 0.60874373
0.35113549 -0.099874645 0.61875492
0.36253911 -0.098803692 0.6062367
-0.49624461 -0.10813059 0.80130941
-0.47200689 -0.10959446 0.81510836
-0.44864616 -0.10895584 0.80594957
-0.46087822 -0.11178242 0.8380546
-0.45272979 -0.1121289 0.84109724
-0.35435414 -0.10848594 0.7920776
-0.34147182 -0.10987391 0.80609536
-0.11170322 -0.10348991 0.71488464
-0.10251603 -0.10551685 0.73624551
-0.096301369 -0.10771359 0.75974232
-0.071682937 -0.10686234 0.74813688
-0.031147094 -0.10483254 0.7221446
-0.024659177 -0.1048556 0.72179717
-0.021443192 -0.10441224 0.71664125
0.042436797 -0.103034 0.69562906
0.046572942 -0.10257506 0.69021714
0.048367269 -0.1001162 0.66310734
0.0726941 -0.093690433 0.59044355
0.11385002 -0.084114507 0.48170379
0.3852438 -0.11318676 0.77517027
0.39236358 -0.11422786 0.78591979
0.33949921 -0.10021941 0.63730621
0.35157144 -0.098477341 0.61710018
0.37056494 -0.099483587 0.62636924
0.40623033 -0.10159151 0.64616895
-0.45995674 -0.10821054 0.81725973
-0.45231703 -0.10962528 0.83237088
-0.35427755 -0.10684306 0.79189324
-0.33942595 -0.10731605 0.79577464
-0.16960789 -0.10132315 0.71252108
-0.13282907 -0.10190471 0.71553147
-0.12163236 -0.10098787 0.70420152
-0.096355371 -0.10623339 0.76051998
-0.092336752 -0.10564183 0.75351465
-0.067821667 -0.1045885 0.7393893
-0.044301894 -0.10391221 0.7295801
-0.034350194 -0.1031481 0.72007859
-0.00024257401 -0.10388833 0.72511905
0.047838792 -0.10091377 0.68724287
0.086045943 -0.091956481 0.58332837
0.12857424 -0.083400451 0.48349443
0.38669398 -0.11189889 0.7779724
0.33425051 -0.098703839 0.63524324
0.34253427 -0.097430795 0.62020296
0.3834385 -0.10068552 0.65274709
0.36976585 -0.098087914 0.62496799
0.40061793 -0.099639602 0.63940316
0.40347147 -0.099089913 0.63297719
0.37760106 -0.09452989 0.58438915
-0.45927292 -0.10609419 0.81222469
-0.35488331 -0.1053455 0.79343182
-0.35003579 -0.10634815 0.80442977
-0.34014192 -0.10893287 0.83303756
-0.18757832 -0.1011076 0.72854888
-0.18475726 -0.10064568 0.72298706
-0.16925827 -0.099709511 0.71075636
-0.15966731 -0.09906324 0.7024219
-0.11845703 -0.09959206 0.70443654
-0.10954624 -0.10277852 0.74002516
-0.10538705 -0.1021269 0.7321617
-0.092174739 -0.10395464 0.75178272
-0.039257858 -0.10195885 0.7237606
-0.03762494 -0.10194125 0.72339886
-0.032716587 -0.10171182 0.72029346
-0.018159714 -0.10179273 0.71979332
-0.016528863 -0.10192241 0.72111708
-0.0098082703 -0.10307164 0.73360962
0.39684129 -0.11188415 0.79461557
0.33581072 -0.095270313 0.61048371
0.32750449 -0.092883728 0.58398819
0.34316537 -0.094823204 0.60464716
0.38529575 -0.099869065 0.65825945
0.37837955 -0.098574154 0.64411938
0.3721776 -0.097399324 0.63128328
-0.50396627 -0.10178231 0.78584778
-0.46722063 -0.10698482 0.8430202
-0.32114553 -0.10598209 0.81655192
-0.11998393 -0.097045623 0.69168848
-0.11211203 -0.10066508 0.73324871
-0.10308528 -0.10011786 0.72593457
-0.031016195 -0.099552803 0.71205282
0.1236607 -0.083228298 0.50542456
0.32779226 -0.09547697 0.6281659
0.34701535 -0.093806393 0.60667837
0.37868536 -0.097318217 0.64457846
-0.35144669 -0.10415237 0.81782341
-0.18636797 -0.095767356 0.70027769
-0.18386427 -0.095437951 0.69607317
-0.13969316 -0.098586656 0.72918236
-0.12708971 -0.094215557 0.67553806
-0.12094451 -0.096244484 0.69919133
-0.11844929 -0.10128187 0.75924373
-0.1101747 -0.10025523 0.74609226
-0.10167857 -0.098852791 0.72841817
-0.098920912 -0.099343263 0.73400378
-0.097154655 -0.10077717 0.75098807
-0.078270018 -0.10059901 0.74689281
-0.075138271 -0.10093136 0.75054628
-0.051060323 -0.10000584 0.73696351
-0.049233854 -0.099568024 0.7315318
0.043049905 -0.096461795 0.68475193
0.087964892 -0.094008401 0.65071082
0.33668485 -0.095023006 0.63701284
0.33024776 -0.092304289 0.60513115
0.3302395 -0.092102773 0.60271972
-0.46489513 -0.10044101 0.80504304
-0.34818381 -0.10220396 0.81415069
-0.34182996 -0.10128516 0.80220902
-0.1844199 -0.09361852 0.69138259
-0.16408207 -0.09386117 0.69217885
-0.11083593 -0.097979352 0.73695028
-0.09845195 -0.098899566 0.74690259
-0.079751782 -0.098846301 0.74424732
-0.050946403 -0.09826611 0.73405069
-0.035865195 -0.09705539 0.71759599
-0.016550398 -0.096970014 0.7144807
-0.014885906 -0.09734568 0.71890724
0.046616759 -0.094242379 0.67428398
0.047726419 -0.093933493 0.6703791
0.077131771 -0.089945912 0.61835575
0.083421007 -0.091795668 0.64035374
0.087381251 -0.092374235 0.64702094
0.11480251 -0.080070667 0.49328399
0.33743399 -0.092807628 0.62555104
0.33919141 -0.092475347 0.62129033
0.33028346 -0.090884194 0.60274214
0.34110528 -0.089545324 0.58517307
-0.46498722 -0.098794557 0.80521685
-0.46297696 -0.098788671 0.80492115
-0.46221372 -0.10133959 0.83686203
-0.4475075 -0.10063802 0.82642972
-0.35214475 -0.098665036 0.79112738
-0.34146237 -0.10367899 0.85289419
-0.11051975 -0.092861623 0.69158304
-0.10864491 -0.097357348 0.74781615
-0.10682218 -0.097269841 0.74651653
-0.093868271 -0.097858533 0.75247633
-0.092101932 -0.097807512 0.7516405
-0.075113684 -0.097879156 0.75066328
-0.057982735 -0.097558774 0.74474919
-0.0099853585 -0.096088447 0.72098899
0.038214631 -0.093378052 0.68163848
0.039221589 -0.092926264 0.67585558
0.32754457 -0.092454016 0.63808107
0.33129862 -0.090005048 0.60692167
-0.44943279 -0.098924927 0.82648075
-0.35740915 -0.097313136 0.79525518
-0.35471681 -0.097166069 0.79305553
-0.34873241 -0.097843982 0.80109626
-0.34479043 -0.097822435 0.80036962
-0.33805612 -0.098004788 0.80194873
-0.33979419 -0.10158433 0.84820396
-0.17998187 -0.091513313 0.70041043
-0.15594283 -0.092381567 0.70884204
-0.057905819 -0.095928699 0.74330974
-0.044039343 -0.094480038 0.72309005
-0.00015062842 -0.0949746 0.72445124
0.041210156 -0.091946691 0.68077856
0.046833165 -0.091627963 0.67603666
0.048021052 -0.0913914 0.67285764
0.076987833 -0.087320089 0.6171717
0.12490548 -0.07906656 0.50551504
0.12406199 -0.078503296 0.49836367
0.1213114 -0.076800682 0.47677022
0.32633737 -0.088214055 0.60025775
0.32497731 -0.085211642 0.56178159
-0.46653423 -0.095415153 0.80461729
-0.45900729 -0.099226348 0.85402149
-0.35647643 -0.095510058 0.79292089
-0.35094944 -0.095544219 0.79272121
-0.34756944 -0.096342467 0.80285668
-0.14285919 -0.091734774 0.7179721
-0.13633843 -0.090960994 0.70699489
-0.10825776 -0.092871062 0.72889519
-0.10421 -0.092357799 0.72164565
-0.09728311 -0.094800033 0.7530567
-0.066483453 -0.094672449 0.74774933
-0.051158872 -0.094369493 0.74194866
-0.0066717104 -0.093307421 0.72270066
0.041451249 -0.090741299 0.68317789
0.048269972 -0.090188727 0.67508441
0.088259064 -0.088794477 0.65198195
0.083376244 -0.085238881 0.6056394
0.0924761 -0.088762559 0.65106469
0.088704616 -0.085828617 0.61279428
0.11925402 -0.077981442 0.50565463
0.12314336 -0.078468047 0.51161754
0.12805963 -0.076495603 0.48501214
0.31689599 -0.08578445 0.58536357
0.31431636 -0.085228331 0.57832885
-0.47588024 -0.095804639 0.83349514
-0.15579088 -0.089417279 0.70809984
-0.10737325 -0.091928869 0.73622507
-0.098866448 -0.093169361 0.75198865
-0.083590418 -0.093282118 0.75165892
-0.071940929 -0.093631923 0.75497943
-0.068211727 -0.093215525 0.74888778
-0.064815283 -0.093206562 0.74835366
0.0030402311 -0.091861613 0.72189409
0.058660328 -0.089734063 0.68632543
0.083054915 -0.085699208 0.62872446
0.31680515 -0.085462928 0.59711468
-0.48061335 -0.093124345 0.82067841
-0.47294298 -0.093179472 0.82048112
-0.18714894 -0.08739379 0.70412332
-0.13016085 -0.088250391 0.70887518
-0.11789344 -0.086880788 0.68828911
-0.11417148 -0.087487675 0.69626039
-0.10731523 -0.091545098 0.75181901
-0.099285536 -0.091965005 0.75664884
-0.0665453 -0.091750368 0.74955106
-0.056448314 -0.091872089 0.74997503
0.038716029 -0.088162526 0.68643618
0.047354013 -0.087821603 0.6806103
0.12343401 -0.073558621 0.47271997
0.32224831 -0.086308502 0.62503332
0.36741388 -0.085271664 0.60494131
-0.47755182 -0.09105587 0.81489372
-0.35043451 -0.090570249 0.79143423
-0.34864762 -0.09059114 0.79150099
-0.35128191 -0.093079366 0.82739955
-0.34421524 -0.093599245 0.83390975
-0.33936951 -0.09456411 0.84706825
-0.18366021 -0.086419299 0.71044362
-0.16119966 -0.085471094 0.69397503
-0.16017628 -0.086933114 0.71473402
-0.15340006 -0.085581921 0.69454521
-0.11453606 -0.087207504 0.71272409
-0.068345197 -0.090371251 0.75193077
-0.054902744 -0.090650097 0.75416797
0.04051619 -0.086965993 0.68912238
0.050418314 -0.086457253 0.68056571
0.11982556 -0.072442189 0.47127104
0.3411296 -0.079683863 0.54599339
-0.48556283 -0.089602821 0.81931072
-0.47210556 -0.089695789 0.81886679
-0.44158217 -0.090999544 0.83392119
-0.35302272 -0.089053802 0.79341215
-0.17876279 -0.08608973 0.72640771
-0.15519419 -0.08484038 0.70487607
-0.14927365 -0.08444456 0.69826227
-0.10591602 -0.088703953 0.75502819
-0.061413582 -0.088678703 0.74867004
-0.0094922306 -0.088565357 0.74001938
0.0020062802 -0.088462688 0.73696339
0.0049528372 -0.087875418 0.72793639
0.078968495 -0.08122924 0.6203047
0.08264865 -0.081057742 0.61728859
0.085442968 -0.081659943 0.62576312
0.089038856 -0.079860874 0.59883922
0.088961311 -0.079325572 0.59098279
0.12078402 -0.071956187 0.47839794
0.12637563 -0.072047405 0.47898644
0.39585069 -0.086570926 0.65617818
0.35449311 -0.079875946 0.56334996
0.34737143 -0.074936137 0.49171031
-0.46728924 -0.087440751 0.80961567
-0.3438611 -0.090467639 0.8382014
-0.16696286 -0.082921773 0.69940269
-0.13849279 -0.081278704 0.67058069
-0.11842276 -0.082928419 0.69273895
-0.11358124 -0.084682874 0.71860325
-0.098813914 -0.08703097 0.75206453
-0.093625806 -0.087001875 0.75090194
-0.082664326 -0.086379185 0.73995471
-0.064789742 -0.087152056 0.74915415
-0.014433471 -0.087094568 0.74126697
-0.0010699099 -0.087376624 0.74367094
0.0034900396 -0.086643778 0.73194993
0.0050112214 -0.086458243 0.72893155
0.043746259 -0.084255315 0.6902101
0.079436004 -0.080150068 0.62313724
0.082318187 -0.079648793 0.6151523
0.087533586 -0.079579651 0.61337972
0.089300282 -0.07823173 0.59274352
0.089940839 -0.077988118 0.58896947
0.23780772 -0.083555087 0.65257221
0.24419644 -0.082759432 0.63964629
0.25260299 -0.082600169 0.6360656
0.37158635 -0.081936151 0.60943919
0.38454911 -0.082726322 0.61958557
0.36631548 -0.078290015 0.5550198
0.34193578 -0.073466048 0.48544618
0.34464312 -0.073047787 0.47874209
-0.46142742 -0.085792646 0.80910558
-0.17870778 -0.083096333 0.72623754
-0.16118743 -0.082314976 0.71153057
-0.145236 -0.080079839 0.67439532
-0.14293264 -0.082292862 0.70854813
-0.11710708 -0.0808613 0.68250811
-0.097162001 -0.084380761 0.73447061
0.052516956 -0.082616836 0.68535519
0.07998772 -0.078531317 0.61772108
0.081359439 -0.078538224 0.61763036
0.082030863 -0.076711625 0.58906943
0.1264545 -0.071823895 0.50648403
0.12678587 -0.071640775 0.50358254
0.21144468 -0.081371993 0.64299297
0.2273064 -0.082567319 0.65932739
0.2288681 -0.082091995 0.65169501
0.23165289 -0.081854612 0.64759362
0.23754168 -0.082178995 0.65179735
0.24068426 -0.082494244 0.65625566
0.24029446 -0.082183748 0.65147376
0.24790758 -0.081407383 0.63827544
0.35444292 -0.08145795 0.62366951
0.3060284 -0.075449735 0.53703862
0.32194182 -0.07669317 0.55411601
0.36500704 -0.081078589 0.6162315
0.3561978 -0.07607998 0.53961092
0.34612262 -0.07339634 0.49924722
0.34147266 -0.072034657 0.47869927
-0.48371962 -0.084777065 0.82294124
-0.46081445 -0.08428181 0.81154937
-0.34168142 -0.08733917 0.84281141
-0.34048873 -0.087477475 0.84485531
-0.18773149 -0.080324508 0.70701694
-0.16992007 -0.080460951 0.70653921
-0.14071742 -0.079371743 0.68465847
-0.072316237 -0.084887326 0.76302582
0.0007135066 -0.084513769 0.74607372
0.045319356 -0.081444889 0.69007492
0.047365941 -0.080819972 0.6797272
0.12235736 -0.069568209 0.48769024
0.14614567 -0.072928831 0.53812182
0.2213003 -0.081395023 0.6628865
0.25057289 -0.080764428 0.64836502
0.32230291 -0.076399922 0.5674811
0.32502934 -0.073475167 0.52007759
0.34411022 -0.071782224 0.49001464
0.34411141 -0.071686231 0.48847204
-0.47856522 -0.083409213 0.82759577
-0.34259099 -0.085757457 0.84536141
-0.14465931 -0.081322961 0.74099404
-0.10788673 -0.079894319 0.71157485
-0.085635044 -0.082886241 0.75772691
-0.054880463 -0.08306212 0.75585353
-0.048149955 -0.083255991 0.7580207
-0.011018786 -0.082709476 0.74317431
-0.0093194377 -0.082825422 0.74483263
-0.0041084886 -0.083337508 0.75251311
0.053307839 -0.080248676 0.69234663
0.083371595 -0.075735494 0.6128183
0.12152027 -0.06722495 0.46573925
0.21068016 -0.078363135 0.63656747
0.22873105 -0.079413153 0.65116972
0.236176 -0.079754315 0.65566844
0.30136728 -0.073598921 0.5434345
0.3180292 -0.074494436 0.55569035
0.37733024 -0.079664044 0.63218695
0.37386802 -0.077447169 0.59596199
0.34695429 -0.071049102 0.49404916
-0.48414648 -0.080604725 0.80967355
-0.48108631 -0.080912217 0.81444675
-0.35266438 -0.080847777 0.79254746
-0.34120595 -0.083814003 0.84151584
-0.15064976 -0.075130284 0.66187161
-0.14459684 -0.079786256 0.74066758
-0.11341737 -0.078738011 0.71765834
-0.10794463 -0.07847254 0.71222329
-0.091546312 -0.081854701 0.76751834
-0.085569419 -0.081301302 0.75706816
-0.07518594 -0.081255637 0.75460476
-0.062897809 -0.080883101 0.74623162
0.048882861 -0.078031734 0.67927575
0.056470238 -0.078889027 0.69273615
0.059382584 -0.078822441 0.69112349
0.06094816 -0.078847013 0.69129145
0.08418633 -0.073361076 0.59353173
0.12303302 -0.067916721 0.4939571
0.23822176 -0.077870786 0.64585865
0.32278913 -0.076739818 0.61278731
0.37524128 -0.078295022 0.63094133
0.36094457 -0.073135905 0.54485893
0.34609261 -0.069955565 0.49277145
-0.47318727 -0.079468094 0.81730598
-0.34864479 -0.079731382 0.80098248
-0.3504695 -0.081371948 0.8303647
-0.1823249 -0.075866126 0.70445079
-0.086199291 -0.080229655 0.76558125
-0.07217595 -0.080131337 0.7614755
-0.058046699 -0.079680271 0.75110024
-0.056528863 -0.079939447 0.75543797
-0.0092927581 -0.079758652 0.74427265
0.055287503 -0.077643357 0.69590056
0.06092146 -0.077413999 0.69088614
0.085230581 -0.073856361 0.62374032
0.12036895 -0.065883651 0.4765237
0.14879967 -0.065684974 0.46821144
0.2340413 -0.077401392 0.66148573
0.32339182 -0.07585077 0.61894691
0.32033277 -0.075352818 0.61063713
0.36872819 -0.072867624 0.558438
-0.34955016 -0.077436641 0.78925043
-0.34483168 -0.078364588 0.80545169
-0.34009212 -0.079918772 0.83314222
-0.18294404 -0.07499256 0.71513766
-0.081862815 -0.078043021 0.7533685
-0.072135285 -0.078555338 0.76106185
-0.059679072 -0.07808169 0.75018245
-0.054817937 -0.078420825 0.75555265
-0.049557623 -0.078177601 0.7501654
0.043445077 -0.075557254 0.68574303
0.053849477 -0.076259993 0.69681269
0.082397617 -0.072532997 0.62340063
0.0887307 -0.069937602 0.57465756
0.13113144 -0.068235122 0.53596681
0.11964345 -0.064333268 0.46637666
0.14029072 -0.067349494 0.51810515
0.14384879 -0.067605302 0.52217466
0.32364222 -0.07490325 0.62453347
0.31082532 -0.071393177 0.56236702
0.36903039 -0.076001048 0.63670957
0.38403636 -0.075386494 0.62279588
0.39663836 -0.0734604 0.58523464
0.41294813 -0.073995464 0.59218991
-0.16083819 -0.072104648 0.68412328
-0.15150575 -0.073663294 0.71207213
-0.11076755 -0.073896848 0.70905185
-0.094345413 -0.076755799 0.76044512
-0.080064736 -0.076456897 0.752141
-0.05642366 -0.076762944 0.75363296
-0.051386558 -0.076883614 0.75500619
0.0050919717 -0.07598453 0.72755027
0.1472176 -0.062847443 0.451529
0.38556439 -0.082636096 0.78441
0.38683665 -0.082603186 0.78355014
0.32677832 -0.074398383 0.63842833
0.34463134 -0.073245876 0.61322713
0.35459203 -0.074138112 0.6283797
0.37769184 -0.075704254 0.65394938
0.36955684 -0.074392036 0.63046974
-0.17015921 -0.071401924 0.69987333
-0.10732161 -0.072374232 0.70705533
-0.10189948 -0.074606434 0.75011897
-0.097114109 -0.073890246 0.73505342
-0.090127766 -0.075836755 0.77217311
-0.068698354 -0.07550095 0.7614367
0.044196099 -0.072331518 0.67721045
0.054813378 -0.073132224 0.69099742
0.08345449 -0.069034152 0.60455012
0.082692742 -0.068008564 0.58443326
0.086891197 -0.068120405 0.58583951
0.1199783 -0.064041711 0.49892372
0.12420036 -0.062853523 0.4746407
0.14175928 -0.065071203 0.51509446
0.15533923 -0.066466935 0.54007041
0.15681961 -0.066138193 0.53329211
0.15885575 -0.066290714 0.53591543
0.14590982 -0.06261427 0.46575817
0.14531079 -0.062056463 0.45485228
0.38514063 -0.081187002 0.78690821
0.3766233 -0.072294816 0.61285591
0.372352 -0.071794055 0.60378033
-0.3441433 -0.074039772 0.81850183
-0.18586297 -0.069753028 0.69874305
-0.16339996 -0.068733573 0.67330253
-0.16451393 -0.069797724 0.69538611
-0.15712266 -0.070013829 0.69834554
-0.1553143 -0.069971271 0.69710952
-0.10722852 -0.072361961 0.73659325
-0.10163137 -0.072947972 0.74751139
-0.091497995 -0.074038275 0.76788068
-0.075293943 -0.073695883 0.75760156
-0.063041829 -0.073491819 0.75095654
-0.014107427 -0.074047595 0.75257522
0.12738374 -0.064200409 0.52194798
0.20453219 -0.064254642 0.50761318
0.22817452 -0.06458497 0.50966495
0.31607637 -0.068347782 0.56936431
0.3390041 -0.070217542 0.60318393
0.35344237 -0.071363866 0.623842
0.37814137 -0.072399884 0.64017993
0.39718932 -0.072331272 0.63495559
-0.1840988 -0.069000758 0.71308041
-0.17632104 -0.069157407 0.71480018
-0.17178611 -0.068896823 0.70827359
-0.14979503 -0.069735363 0.72159934
-0.12081354 -0.069595255 0.7125212
-0.11921746 -0.069618136 0.71267575
-0.11769877 -0.06966985 0.71346378
-0.088415101 -0.072735615 0.77291149
-0.070466913 -0.072448663 0.76300603
-0.056346104 -0.072117411 0.75295657
-0.012552382 -0.0720919 0.74322176
0.0035304837 -0.071531832 0.7278648
0.052187402 -0.069798224 0.68056589
0.080363967 -0.067193702 0.6189298
0.1519208 -0.060829893 0.46776253
0.33991045 -0.070934437 0.6445049
0.31596676 -0.06717588 0.56911504
0.33350825 -0.068592288 0.59573835
0.39236823 -0.068373695 0.57871115
0.41239923 -0.069240697 0.59305799
0.41767082 -0.069560431 0.59879309
-0.18366818 -0.067448236 0.7110883
-0.18154508 -0.067711301 0.71649224
-0.1742864 -0.067617469 0.71279937
-0.16282794 -0.067313999 0.70350236
-0.15055038 -0.068010479 0.71634531
-0.10938329 -0.069538899 0.74139333
-0.093932763 -0.069499888 0.73712081
-0.088318117 -0.071112104 0.77186972
-0.08645504 -0.071056314 0.77021402
-0.066968389 -0.070883371 0.76206249
-0.056251351 -0.070492536 0.75097853
0.058253944 -0.068447649 0.68012023
0.080225766 -0.065878652 0.6179409
0.15124872 -0.059363846 0.45688701
0.21389651 -0.062998667 0.52422088
0.36450621 -0.068850599 0.62167102
0.35896546 -0.067486919 0.59245396
0.38445154 -0.068919607 0.61881948
0.39159107 -0.068181664 0.60077637
0.34063536 -0.064015068 0.51899785
0.40337464 -0.067530356 0.5836435
-0.34680563 -0.069061652 0.82065427
-0.16333273 -0.065980375 0.70628399
-0.10627944 -0.068870068 0.76048821
-0.097798683 -0.067449845 0.72539121
-0.093025118 -0.068382815 0.74605113
-0.092041224 -0.068748407 0.75435275
-0.076440006 -0.068705186 0.74973178
-0.056201395 -0.068923451 0.75013834
-0.0076178224 -0.068913445 0.7386542
-0.0013946436 -0.068421327 0.72573221
0.0047646812 -0.068101391 0.71684229
0.0064057671 -0.068151325 0.71762699
0.047433876 -0.066877253 0.67840284
0.089911848 -0.063402362 0.58749908
0.13303295 -0.060798995 0.51677871
0.12809923 -0.059837766 0.49549544
0.12914352 -0.059034765 0.47652039
0.21537738 -0.0623229 0.53326231
0.21316299 -0.061955269 0.52519876
0.38675776 -0.07472913 0.78300852
0.32889569 -0.067888513 0.63681895
0.35623795 -0.066906989 0.60758942
0.38668481 -0.066850223 0.59921497
0.39186317 -0.067158036 0.60519671
0.3959114 -0.06588532 0.57456821
-0.34482324 -0.067384236 0.82038027
-0.17080002 -0.064334467 0.70340312
-0.15331258 -0.064540349 0.70416713
-0.13400094 -0.06562493 0.72595674
-0.10761682 -0.06715773 0.75697237
-0.10193967 -0.068477288 0.78782988
-0.091985747 -0.067187086 0.75387621
