# .PCD v0.7 - Point Cloud Data file format
VERSION 0.7
FIELDS x y z
SIZE 4 4 4
TYPE F F F
COUNT 1 1 1
WIDTH 1393
HEIGHT 1
VIEWPOINT 0 0 0 1 0 0 0
POINTS 1393
DATA ascii
-0.081261069 -0.19214967 0.55238867
-0.090411544 -0.23420343 0.67328405
-0.0053498149 -0.22747403 0.65393853
0.080883265 -0.24299659 0.69856274
0.084672779 -0.23288648 0.66949809
0.11314446 -0.22139801 0.63647127
0.11976588 -0.22885151 0.65789855
0.12660944 -0.23637788 0.67953527
0.13993031 -0.21861432 0.62846899
0.16798162 -0.23737393 0.68239868
0.17890453 -0.24229044 0.69653261
0.25371778 -0.21713161 0.6242063
0.28183353 -0.2161839 0.6214819
0.30005419 -0.22486138 0.64642763
0.29285848 -0.21356834 0.61396277
0.35112542 -0.22307436 0.64129043
0.35419667 -0.22242086 0.63941169
0.38839149 -0.23747963 0.68270242
0.42912292 -0.24235329 0.69671333
0.41666389 -0.23130366 0.66494787
0.42545027 -0.23537841 0.67666185
0.45134628 -0.23991838 0.68971336
0.47730803 -0.24338461 0.69967818
0.48548663 -0.24524981 0.70503998
0.48990601 -0.24671642 0.70925641
0.50974941 -0.25279838 0.72674072
0.51471961 -0.24993216 0.71850097
0.51087832 -0.24370441 0.70059741
-0.32985127 -0.21627679 0.62524366
-0.27868083 -0.18650335 0.53917038
-0.28929499 -0.21493813 0.62137377
-0.27467132 -0.21702524 0.62740743
-0.27441251 -0.21895877 0.63299716
-0.27084094 -0.23844546 0.68933213
-0.22966397 -0.23700406 0.68516517
-0.20512941 -0.22922502 0.66267633
-0.20335123 -0.23204467 0.67082787
-0.17105916 -0.24109344 0.69698727
-0.10623904 -0.19140786 0.55334902
-0.10098961 -0.1904299 0.55052185
-0.09989284 -0.19285583 0.55753505
-0.099194929 -0.24022552 0.69447827
-0.082149163 -0.23395337 0.67634571
-0.0011464059 -0.22418337 0.64810109
0.092952162 -0.22066653 0.63793409
0.10298032 -0.22776771 0.65846336
0.10483587 -0.21985345 0.63558376
0.12970683 -0.23279551 0.67299843
0.13610005 -0.21988499 0.63567495
0.18496695 -0.21822913 0.63088787
0.19421309 -0.21356867 0.61741471
0.26117182 -0.21880974 0.63256621
0.29329681 -0.21364988 0.61764944
0.41328931 -0.23873395 0.69016612
0.45834541 -0.24070476 0.69586349
0.38280475 -0.19532926 0.5646857
0.4978168 -0.24475507 0.7075727
0.48770732 -0.23905838 0.69110405
0.40998471 -0.19505359 0.56388879
0.38922876 -0.18092395 0.52304065
-0.29786956 -0.2512016 0.73031449
-0.2523182 -0.22963388 0.66761076
-0.22366917 -0.2355276 0.68474555
-0.20308372 -0.22723243 0.66062927
-0.20086613 -0.23118053 0.67210746
-0.19974177 -0.2349268 0.68299913
-0.17197399 -0.22171216 0.64458025
-0.10860734 -0.190337 0.5533638
-0.10774799 -0.19091004 0.55502963
-0.091655329 -0.19198966 0.55816841
-0.083891273 -0.23346356 0.67874479
0.00024211407 -0.22600405 0.65705788
0.001625061 -0.22306199 0.64850473
0.066325247 -0.22627059 0.65783286
0.073590994 -0.22699766 0.65994656
0.10676852 -0.2197997 0.6390202
0.16326535 -0.2281304 0.66323984
0.19257161 -0.2120139 0.61638451
0.25410795 -0.21617122 0.62847102
0.25922662 -0.21936604 0.63775957
0.33832365 -0.22117217 0.64301014
0.33786213 -0.21909048 0.63695812
0.4153502 -0.23604828 0.68625963
0.42540318 -0.23674522 0.68828571
0.43684566 -0.23898111 0.69478583
0.46851635 -0.24152802 0.70219076
0.4698683 -0.24145158 0.70196843
0.49168479 -0.24333826 0.70745349
0.49018043 -0.24185 0.70312667
0.39495254 -0.18739659 0.54481518
-0.29595435 -0.19032754 0.55648184
-0.28075126 -0.19295797 0.56417274
-0.28731346 -0.21203956 0.61996377
-0.26905596 -0.23045021 0.67379308
-0.25749892 -0.22661628 0.66258323
-0.239555 -0.21678573 0.63384068
-0.24951148 -0.22837895 0.66773713
-0.25433403 -0.23413227 0.68455851
-0.25043064 -0.24312691 0.71085739
-0.24448569 -0.24478072 0.71569264
-0.22549844 -0.23457661 0.68585801
-0.20671584 -0.22683474 0.66322196
-0.20043527 -0.22614604 0.66120839
-0.18465751 -0.23298544 0.68120551
-0.10977212 -0.18923017 0.55327344
-0.10645393 -0.23716237 0.69341803
-0.10004562 -0.22603258 0.66087663
-0.089231789 -0.23866761 0.69781923
-0.082974985 -0.23364872 0.68314481
0.0044419765 -0.22406067 0.65511107
0.0058214068 -0.22326227 0.65277672
0.072469652 -0.23113559 0.67579687
0.08200407 -0.23784205 0.69540548
0.082999945 -0.23644516 0.69132125
0.083992094 -0.23508638 0.68734825
0.13793254 -0.23689443 0.6926347
0.15398526 -0.22164486 0.6480478
0.16804802 -0.23147595 0.67679203
0.18599588 -0.21697617 0.63439739
0.18387842 -0.20991512 0.61375225
0.22165054 -0.23308186 0.68148732
0.25178385 -0.21641533 0.63275754
0.25834054 -0.21738045 0.63557935
0.26874107 -0.20559148 0.60111082
0.27214879 -0.20622663 0.60296774
0.28935385 -0.20747422 0.60661542
0.38230264 -0.23513734 0.68749726
0.40019953 -0.23703425 0.69304335
0.41221398 -0.2371287 0.69331968
0.42813909 -0.23940465 0.69997406
0.43631029 -0.2397843 0.70108414
0.4575038 -0.24068576 0.70371962
0.47609437 -0.23869495 0.69789898
0.38039947 -0.17686394 0.51711679
0.38829553 -0.1764341 0.51585996
-0.35180578 -0.21880393 0.643399
-0.350779 -0.2190215 0.6440388
-0.3489539 -0.21874027 0.64321184
-0.2645781 -0.17926867 0.52714443
-0.2701748 -0.18463326 0.54291928
-0.25069755 -0.18567762 0.54599023
-0.23987524 -0.1818957 0.53486943
-0.25542691 -0.22475092 0.66088629
-0.25037134 -0.22276637 0.65505064
-0.2496438 -0.22336812 0.65682006
-0.2534987 -0.22939733 0.6745491
-0.22846268 -0.23478292 0.6903857
-0.20405997 -0.23557073 0.69270241
-0.19392584 -0.23406097 0.68826258
-0.19100922 -0.23409213 0.68835449
-0.11701559 -0.18650597 0.54842603
0.0030215979 -0.22130664 0.65075839
0.0072513223 -0.22306092 0.65591681
0.069820821 -0.23061429 0.67812765
0.10399079 -0.22010806 0.64723372
0.12885806 -0.2325297 0.68376017
0.12956458 -0.22861886 0.67226017
0.1486721 -0.23381211 0.68753099
0.1583128 -0.2265784 0.66626012
0.16040045 -0.22751977 0.66902804
0.16302681 -0.22522169 0.66227055
0.18460077 -0.24441522 0.71870983
0.18651837 -0.21478297 0.63157523
0.18836576 -0.21230081 0.62427652
0.21040422 -0.22747181 0.66888726
0.21776253 -0.2291977 0.67396212
0.23380366 -0.22120559 0.65046108
0.24925673 -0.21188711 0.62305999
0.25792849 -0.21694073 0.63792026
0.38331366 -0.23623489 0.6946553
0.39106447 -0.23733453 0.69788885
0.44497824 -0.23744929 0.69822633
0.46234858 -0.23871259 0.70194113
0.46652716 -0.23931684 0.70371783
0.49001878 -0.23977205 0.70505631
0.48636889 -0.23725651 0.69765925
0.49886191 -0.23967664 0.70477581
0.38129699 -0.17627344 0.51833689
0.38647151 -0.17763336 0.52233589
0.39115208 -0.1772249 0.52113473
0.39079797 -0.17606179 0.5177145
-0.38740471 -0.23055485 0.68185139
-0.35339683 -0.21684161 0.64129531
-0.26681381 -0.17673931 0.52269542
-0.30067304 -0.21251528 0.6285007
-0.28560597 -0.20553908 0.60786879
-0.2521911 -0.23355071 0.6907115
-0.24174321 -0.23202445 0.68619776
-0.2178276 -0.23000143 0.68021476
-0.2155042 -0.2290771 0.67748117
-0.19620106 -0.22358105 0.66122687
-0.20209189 -0.2336601 0.69103503
-0.18684247 -0.23123863 0.68387365
-0.15484756 -0.23368892 0.69112039
-0.078061089 -0.22523963 0.66613197
0.010473609 -0.23101522 0.683213
0.071297884 -0.22938471 0.67839074
0.086067796 -0.23010756 0.68052852
0.082792729 -0.21067058 0.62304497
0.093726695 -0.21750239 0.64324951
0.10858852 -0.24136902 0.71383369
0.11146954 -0.2285091 0.6758014
0.1164152 -0.22971749 0.67937493
0.13889182 -0.21935011 0.64871418
0.18692279 -0.20799668 0.61513686
0.21352482 -0.22644845 0.66970682
0.21669632 -0.22677144 0.67066216
0.21739382 -0.2260063 0.66839945
0.22092366 -0.22379337 0.66185498
0.24490905 -0.20923677 0.61880445
0.2962991 -0.21003862 0.62117589
0.30339038 -0.21410608 0.63320529
0.43765754 -0.23860951 0.70567238
0.44854712 -0.23878604 0.70619464
0.46473843 -0.23703623 0.70101976
0.50162971 -0.23536426 0.69607508
-0.36772066 -0.21840352 0.64965045
-0.28301433 -0.22277063 0.66264033
-0.25964195 -0.21179254 0.62998557
-0.27791789 -0.23910007 0.71121287
-0.25558573 -0.22480556 0.6686933
-0.21536912 -0.2202187 0.65504944
-0.2293608 -0.23919016 0.71148086
-0.20117444 -0.23126185 0.68789792
-0.19244131 -0.23315042 0.69351554
-0.18347496 -0.22401279 0.66633511
-0.15259823 -0.23117542 0.68764067
-0.13134526 -0.23793678 0.70775282
-0.1229614 -0.23928423 0.71176064
-0.1189615 -0.24042404 0.71515107
0.0016337037 -0.21917309 0.65193939
0.083830029 -0.23063128 0.68602216
0.083636761 -0.21159458 0.62939668
0.10672539 -0.23586363 0.70158601
0.1292268 -0.23052862 0.68571675
0.12390324 -0.21375892 0.63583457
0.12843293 -0.21681736 0.64493191
0.13011134 -0.21279903 0.63297939
0.16416788 -0.22037776 0.6555227
0.17334187 -0.22878772 0.6805383
0.18901488 -0.21059643 0.62642777
0.18798888 -0.20798011 0.61864531
0.21668959 -0.22397888 0.66623425
0.22049433 -0.22066125 0.65636587
0.24518651 -0.21054323 0.62626958
0.28533858 -0.21663743 0.6443969
0.3066715 -0.22211291 0.66068387
0.30479741 -0.21974365 0.65363669
0.39016366 -0.23770696 0.70706928
0.38871711 -0.23591186 0.70172942
0.39841807 -0.23632827 0.702968
0.4389751 -0.23795162 0.70779669
0.46379358 -0.23595482 0.70185721
0.371777 -0.17657664 0.52523446
0.39053863 -0.17643087 0.52480078
0.40376186 -0.17982224 0.53488874
-0.38958558 -0.22662874 0.67803788
-0.31246632 -0.20122927 0.60204661
-0.31738824 -0.20782232 0.62177193
-0.3157292 -0.20760526 0.62112272
-0.28398016 -0.22223806 0.66490185
-0.26621857 -0.21368487 0.63931179
-0.27103591 -0.22328182 0.66802442
-0.27166465 -0.22618286 0.67670381
-0.2652542 -0.23067038 0.69012988
-0.25064293 -0.22944745 0.68647122
-0.2217596 -0.23146032 0.6924932
-0.19825365 -0.22494224 0.67299211
-0.19523497 -0.22985564 0.68769228
-0.14710306 -0.23043954 0.68943918
-0.14014648 -0.22870591 0.68425262
-0.08272104 -0.23171438 0.69325352
-0.07346788 -0.22603925 0.6762743
0.064103991 -0.21711431 0.64957213
0.073841363 -0.21316089 0.63774407
0.083562374 -0.21716973 0.64973783
0.084458351 -0.21243729 0.63557923
0.097144485 -0.22284116 0.66670609
0.11969972 -0.21229817 0.63516295
0.13035867 -0.21647213 0.64765096
0.15975913 -0.22472669 0.67234719
0.16391665 -0.22650005 0.67765284
0.1792354 -0.22572757 0.67534173
0.18903434 -0.22197917 0.66412723
0.19070381 -0.22227061 0.66499901
0.19359541 -0.22397155 0.67008793
0.24957967 -0.20741452 0.62055194
0.28852272 -0.21778801 0.65158784
0.30373168 -0.22074427 0.66043234
0.3407703 -0.23771989 0.71122086
0.35842788 -0.23534028 0.70410144
0.36034244 -0.23365429 0.69905722
0.42281443 -0.23941723 0.71629918
0.43367964 -0.23616321 0.70656359
0.44153196 -0.23471783 0.70223904
0.45397878 -0.23730119 0.70996809
0.45302367 -0.23601304 0.70611417
0.48185849 -0.23609139 0.70634854
0.48516977 -0.23623337 0.70677364
0.37943691 -0.17971516 0.53767967
0.49906117 -0.23424512 0.70082498
0.37120008 -0.1716547 0.51356411
0.38735384 -0.17498522 0.52352834
0.39651036 -0.17657131 0.52827358
-0.35160407 -0.20958132 0.63070345
-0.3191925 -0.20521024 0.61754954
-0.31753737 -0.20499381 0.61689806
-0.31610668 -0.20577914 0.61926138
-0.25276631 -0.1795847 0.54043317
-0.25838313 -0.19329172 0.58168232
-0.26905215 -0.21581078 0.64945018
-0.25059849 -0.24225345 0.72902548
-0.21595787 -0.2255993 0.67890728
-0.19800866 -0.22832713 0.68711638
-0.19420387 -0.22903597 0.6892494
-0.19052397 -0.22992855 0.69193554
-0.18379168 -0.22891137 0.68887448
-0.17128685 -0.22223856 0.66879356
-0.16626085 -0.22910091 0.68944478
-0.16356531 -0.23154314 0.69679427
-0.14175932 -0.2143355 0.64501071
0.072387516 -0.21992767 0.66183937
0.080692559 -0.22738601 0.68428397
0.1599941 -0.2159771 0.64995074
0.18669051 -0.21960071 0.66085517
0.18883562 -0.21247831 0.6394217
0.20749184 -0.21919309 0.65962851
0.21030807 -0.22066869 0.66406929
0.26058429 -0.21645044 0.65137517
0.30189741 -0.22018135 0.66260266
0.33251476 -0.23164485 0.6971004
0.34389371 -0.23128125 0.69600618
0.35337865 -0.23361787 0.70303798
0.35340571 -0.23069294 0.6942358
0.43929446 -0.25853562 0.77802408
0.43136501 -0.23600179 0.71021187
0.43181777 -0.23542096 0.70846403
0.43550682 -0.23577866 0.70954049
0.45388997 -0.2350888 0.70746458
0.46739 -0.23277539 0.70050251
-0.33811608 -0.20348281 0.61595511
-0.26871532 -0.18555918 0.56169915
-0.25862628 -0.18101847 0.54795408
-0.24255183 -0.17370054 0.52580225
-0.24746354 -0.18056449 0.54657972
-0.2468501 -0.18627238 0.56385791
-0.26982331 -0.2232246 0.67571449
-0.28069121 -0.23600528 0.71440256
-0.26959676 -0.23432527 0.70931721
-0.24692541 -0.23583964 0.71390116
-0.21879609 -0.22127962 0.6698271
-0.21276543 -0.22245854 0.67339563
-0.19760737 -0.22160034 0.67079794
-0.2033145 -0.22966675 0.69521546
-0.075168803 -0.22417141 0.67858076
0.0016356707 -0.21563059 0.65272713
0.075711608 -0.23323889 0.70602858
0.13263682 -0.20882295 0.63211977
0.18097889 -0.22347189 0.67646325
0.18368369 -0.22150297 0.67050314
0.18608522 -0.22266173 0.67401087
0.18881524 -0.21121235 0.6393528
0.18866611 -0.20656066 0.62527192
0.20674908 -0.22164863 0.67094398
0.21014059 -0.21920283 0.66354048
0.33652765 -0.23306865 0.705513
0.35813999 -0.22952437 0.6947844
0.39431596 -0.23791152 0.720173
0.39592671 -0.23703286 0.71751297
0.42806315 -0.23956931 0.725191
0.42938709 -0.23436978 0.70945179
0.43444836 -0.23301798 0.7053597
0.43671918 -0.23182254 0.70174098
0.44734418 -0.23424466 0.70907295
0.38164485 -0.1775822 0.53755224
0.38908184 -0.17523959 0.53046107
-0.33690208 -0.20394111 0.62099731
-0.33257499 -0.20211801 0.61544609
-0.32008907 -0.20337844 0.61928415
-0.29290804 -0.19413599 0.59114087
-0.25373739 -0.18405259 0.56043708
-0.25931627 -0.23324457 0.71022606
-0.22053206 -0.21606737 0.65792155
-0.21995026 -0.21828102 0.66466212
-0.20347613 -0.22849658 0.69576824
-0.19505095 -0.22908075 0.6975472
-0.17569302 -0.22158931 0.6747359
-0.17147164 -0.22172509 0.6751492
-0.15444586 -0.22008292 0.67014873
-0.074723333 -0.22153139 0.67455947
0.037742645 -0.21342446 0.64987385
0.049833477 -0.23082563 0.70286036
0.054659784 -0.23218288 0.7069931
0.058238685 -0.21218915 0.64611244
0.075404167 -0.22641194 0.68942058
0.077011138 -0.22680506 0.69061768
0.12923184 -0.20434615 0.62223065
0.32266855 -0.22724628 0.69196117
0.33855456 -0.23414157 0.71295726
0.33932996 -0.23155114 0.70506954
0.44238645 -0.26026416 0.79250026
0.45912707 -0.2304129 0.70160341
0.40190381 -0.17787579 0.54162884
0.42323184 -0.18207082 0.55440271
-0.3458882 -0.21318033 0.65299654
-0.27697182 -0.18248682 0.55897868
-0.27288294 -0.199595 0.61138308
-0.27688849 -0.22516796 0.6897161
-0.28362373 -0.23187964 0.71027482
-0.25790948 -0.22662601 0.69418216
-0.26386106 -0.23455432 0.71846759
-0.2396034 -0.22339168 0.68427515
-0.21091381 -0.22714616 0.69577563
-0.20333347 -0.22698452 0.69528043
-0.20012136 -0.23012629 0.70490408
-0.17564408 -0.22021602 0.67454767
-0.15380153 -0.23532665 0.72083342
-0.034346879 -0.24034919 0.73621798
-0.0012108088 -0.22346656 0.68450439
0.042521298 -0.23053852 0.70616674
0.15694499 -0.21958147 0.67260396
0.16011864 -0.21999156 0.67386007
0.17129654 -0.22717533 0.69586504
0.18843356 -0.21776018 0.66702521
0.18694854 -0.21282367 0.65190423
0.1845617 -0.20111294 0.61603284
0.30031788 -0.22689261 0.69499898
0.32847214 -0.22996397 0.70440686
0.33707935 -0.23278892 0.71306002
0.34577698 -0.22846575 0.69981766
0.41281641 -0.23082416 0.70704162
0.43511128 -0.22982891 0.70399296
0.43741202 -0.22867182 0.70044875
0.44443452 -0.22843386 0.69971991
0.45223325 -0.2293551 0.70254171
0.47245562 -0.22896755 0.70135462
0.48375058 -0.22863793 0.70034492
0.39248174 -0.17675026 0.54140687
0.40562546 -0.17794749 0.54507434
0.40750808 -0.17624244 0.53985143
-0.38748169 -0.22215435 0.68456209
-0.34360647 -0.20392981 0.62840378
-0.33746767 -0.20186457 0.62203991
-0.35075387 -0.2157623 0.66486526
-0.31787714 -0.20041025 0.61755824
-0.2819019 -0.22787961 0.70220423
-0.26078641 -0.23178953 0.71425259
-0.24937756 -0.22427496 0.69109678
-0.20274065 -0.21704356 0.66881335
-0.20970905 -0.2277147 0.70169628
-0.20799996 -0.23251022 0.71647358
-0.2008401 -0.23308691 0.71825051
-0.14618723 -0.21585727 0.66515779
-0.15405168 -0.23198175 0.71484506
-0.070454404 -0.22366421 0.68921471
0.00025135279 -0.22133902 0.68204963
0.024087548 -0.21297488 0.65627587
0.040898502 -0.22041953 0.67921627
0.19811147 -0.23107745 0.71205831
0.24502701 -0.20310508 0.62586224
0.32299823 -0.2300573 0.70891464
0.33923113 -0.2328797 0.71761179
0.35558105 -0.23055242 0.71044052
0.36639422 -0.23259708 0.7167412
0.44436049 -0.25833005 0.7960366
0.4048841 -0.23448256 0.72255111
0.41247767 -0.22759484 0.70132673
0.42466986 -0.22850919 0.70414436
0.42967069 -0.22876793 0.70494151
0.43542451 -0.22941785 0.70694435
0.47392523 -0.22545056 0.6947192
0.47879684 -0.22564708 0.69532478
0.41944778 -0.18721716 0.57690406
0.39402455 -0.17433226 0.53719974
0.40546596 -0.17681816 0.54486001
-0.39791828 -0.22763066 0.70566511
-0.36105463 -0.21053259 0.65266049
-0.35641456 -0.21793084 0.67559516
-0.35105953 -0.21641 0.67088079
-0.29583389 -0.18539524 0.5747335
-0.31707066 -0.21475539 0.6657511
-0.25974286 -0.18682627 0.57916963
-0.24158557 -0.22120658 0.68575025
-0.22616678 -0.22334902 0.69239187
-0.21912779 -0.22073065 0.68427479
-0.21442825 -0.23144406 0.71748674
-0.20330787 -0.2275791 0.70550537
-0.20041844 -0.22602113 0.70067549
-0.17479992 -0.21654716 0.67130578
-0.16492233 -0.21305466 0.66047895
-0.049730092 -0.23581557 0.73103881
0.01160872 -0.2143836 0.6645987
0.044273406 -0.22904865 0.71006083
0.084968507 -0.22429964 0.69533873
0.14776784 -0.2204321 0.68334937
0.18646061 -0.19793785 0.61361599
0.25614917 -0.20877264 0.64720452
0.29603428 -0.2312884 0.71700418
0.30189061 -0.22648425 0.70211112
0.32547021 -0.23151502 0.71770692
0.33831704 -0.23296733 0.72220898
0.35149902 -0.23352079 0.72392452
0.40269852 -0.22833574 0.70785081
0.40710431 -0.22826119 0.70761967
0.4065423 -0.22710238 0.70402753
0.41098553 -0.22623493 0.70133841
0.41402411 -0.22625718 0.70140719
0.43154591 -0.22523047 0.69822443
0.44176221 -0.22360317 0.69317973
0.46608633 -0.22605921 0.70079362
0.46720499 -0.22587591 0.70022523
0.48177505 -0.22569034 0.69964993
0.41718268 -0.19185852 0.59476984
0.41055226 -0.18055648 0.55973303
-0.36223271 -0.21240842 0.66246843
-0.35871834 -0.21368876 0.66646171
-0.36553368 -0.2212632 0.69008505
-0.2691226 -0.17490157 0.54549062
-0.27004826 -0.17626682 0.54974842
-0.2980547 -0.19539748 0.60941398
-0.32344809 -0.21775445 0.679142
-0.27986187 -0.19273566 0.60111213
-0.25921172 -0.17933765 0.55932593
-0.26215786 -0.1847848 0.57631481
-0.2855618 -0.21016893 0.65548384
-0.27563488 -0.20589328 0.64214885
-0.22457547 -0.21345717 0.66573942
-0.22669436 -0.21684512 0.67630589
-0.20760271 -0.2165321 0.67532957
-0.21282196 -0.22997041 0.71724164
-0.15539905 -0.21034485 0.65603256
0.02717793 -0.22435448 0.69972646
0.029859811 -0.22205505 0.69255483
0.037056565 -0.22083706 0.68875611
0.13722363 -0.21859311 0.68175769
0.1323638 -0.20863616 0.65070343
0.16162276 -0.21614631 0.67412639
0.17297149 -0.21592404 0.67343342
0.18964225 -0.20891872 0.65158463
0.18603903 -0.20053136 0.6254257
0.18587071 -0.19751152 0.61600757
0.23350018 -0.23171073 0.72266936
0.26232916 -0.22087041 0.68886018
0.28636479 -0.23711497 0.73952436
0.30431211 -0.23390102 0.72950053
0.30594891 -0.22701697 0.70803034
0.32251549 -0.22696085 0.70785522
0.43730074 -0.25022149 0.78040135
0.43533289 -0.22428624 0.69951344
0.46757644 -0.22541505 0.70303416
0.42225742 -0.18458498 0.57569146
0.41987717 -0.18039051 0.56260967
-0.38621205 -0.21744646 0.68231893
-0.36946392 -0.21201986 0.66529107
-0.36369532 -0.21197277 0.66514337
-0.29530701 -0.1813283 0.56898475
-0.28532946 -0.17888507 0.5613184
-0.2994256 -0.19510581 0.61221707
-0.29813233 -0.19511585 0.61224842
-0.32599118 -0.2152378 0.67538846
-0.29125565 -0.19936603 0.62558508
-0.2638523 -0.18144128 0.56933939
-0.25224894 -0.22957893 0.72038925
-0.23845953 -0.21971104 0.68942487
-0.2255066 -0.21717046 0.68145299
-0.22166649 -0.21769029 0.68308413
-0.20616513 -0.20654823 0.64812171
-0.18919431 -0.22419293 0.70348871
-0.15426236 -0.2094297 0.65716338
-0.14391559 -0.21934929 0.68828988
-0.14913653 -0.23205084 0.7281456
-0.075236529 -0.22070844 0.69255471
-0.06015414 -0.2310016 0.7248534
0.018227041 -0.20631936 0.6474036
0.080071568 -0.20882455 0.65526462
0.11731058 -0.22092919 0.69324744
0.1405642 -0.23242921 0.72933304
0.14434621 -0.21702231 0.68098795
0.17741627 -0.22576562 0.70842338
0.24694544 -0.22025521 0.69113243
0.24917769 -0.2196188 0.68913543
0.2474941 -0.21433398 0.67255247
0.25461733 -0.21672648 0.68005991
0.30724478 -0.22886011 0.71813345
0.32446229 -0.23018564 0.7222929
0.43028164 -0.25341141 0.79517233
0.40152478 -0.22408383 0.70314622
0.4077695 -0.22338828 0.70096362
0.44390857 -0.22348 0.70125151
0.46872687 -0.22104752 0.69361866
0.4830963 -0.22427729 0.70375323
-0.37118781 -0.21252748 0.67097747
-0.37716508 -0.21933958 0.69248426
-0.28936458 -0.17806193 0.56216526
-0.28089458 -0.1772663 0.55965328
-0.31940722 -0.20685609 0.65307212
-0.33215427 -0.21796909 0.68815744
-0.29048955 -0.19853997 0.62681711
-0.27308428 -0.18926269 0.5975275
-0.27688324 -0.20637256 0.65154576
-0.23293296 -0.20568354 0.64937031
-0.2278538 -0.21669252 0.68412709
-0.20281461 -0.20897244 0.65975392
-0.2060295 -0.21680714 0.68448901
-0.19258605 -0.21486636 0.67836177
-0.18908055 -0.22813025 0.72023761
-0.17238927 -0.21681795 0.68452311
-0.14821428 -0.21154813 0.66788554
-0.082683131 -0.21189161 0.66896999
-0.087735608 -0.23289435 0.73527849
-0.085261047 -0.23473498 0.74108946
-0.077862382 -0.21842325 0.68959129
-0.077632397 -0.22198005 0.70082068
0.00024244189 -0.20837986 0.65788305
0.011391163 -0.20656186 0.65214324
0.022857666 -0.22325912 0.70485878
0.11024386 -0.22026427 0.69540346
0.1237312 -0.22046115 0.69602513
0.13279563 -0.20677811 0.65282619
0.13474113 -0.20339614 0.64214873
0.17422944 -0.21665956 0.68402302
0.18918264 -0.21052268 0.66464818
0.18571463 -0.19634306 0.61988115
0.22262692 -0.22570661 0.71258581
0.23046458 -0.22010079 0.69488752
0.2664066 -0.22667183 0.71563315
0.26384401 -0.22320992 0.70470333
0.27961773 -0.23127329 0.73016059
0.28350008 -0.23062293 0.72810733
0.2881887 -0.22817449 0.72037709
0.31156617 -0.22725716 0.71748114
0.37852985 -0.22603652 0.71362734
0.4436968 -0.25176254 0.79484761
0.43058753 -0.2214323 0.69909132
0.4705652 -0.22126034 0.6985482
0.38572943 -0.1779822 0.56191337
0.48852837 -0.21927087 0.6922673
-0.37670171 -0.21190447 0.67314267
-0.37459248 -0.21152584 0.67193985
-0.37766647 -0.22176401 0.70446277
-0.28025997 -0.17578015 0.55838895
-0.28423518 -0.18136266 0.57612264
-0.3310079 -0.21684361 0.68883252
-0.32984191 -0.22099453 0.70201838
-0.32730269 -0.22029532 0.69979739
-0.30315268 -0.2138117 0.67920125
-0.30698484 -0.21967022 0.6978116
-0.29061979 -0.21208134 0.6737045
-0.28488463 -0.20997691 0.66701949
-0.19985202 -0.20324275 0.64562762
-0.1974244 -0.21727668 0.69020808
-0.17502096 -0.21334469 0.6777178
-0.17097358 -0.21191888 0.67318833
-0.14371207 -0.21417709 0.68036199
-0.14248893 -0.21452484 0.68146658
-0.078362286 -0.23637398 0.75087333
-0.0081304163 -0.20548561 0.65275228
0.02001971 -0.20805201 0.66090477
0.050696373 -0.23953243 0.76090646
0.073801607 -0.20442653 0.64938807
0.12328547 -0.21831855 0.6935178
0.13310298 -0.2038427 0.64753342
0.17414057 -0.22269441 0.70741844
0.19262272 -0.21464689 0.68185425
0.23175049 -0.21856174 0.69429052
0.2713275 -0.22683695 0.72057784
0.28527522 -0.22938335 0.72866642
0.29713058 -0.22891797 0.72718823
0.30337441 -0.22893824 0.72725272
0.32640958 -0.22765839 0.72318709
0.43220466 -0.24561703 0.78023529
0.41598499 -0.22510825 0.71508622
0.4440738 -0.22540158 0.71601784
-0.38370535 -0.21128315 0.67534018
-0.37580752 -0.21090123 0.67411959
-0.37858304 -0.21493094 0.68699992
-0.38696203 -0.22314987 0.71327066
-0.37592474 -0.22114111 0.70685005
-0.37653226 -0.22420163 0.71663249
-0.29280627 -0.18730059 0.59868288
-0.33337396 -0.21998008 0.70313883
-0.31650203 -0.22184816 0.7091099
-0.30312616 -0.2166218 0.69240451
-0.30676323 -0.22583625 0.72185755
-0.27471262 -0.21874343 0.69918609
-0.21723859 -0.20671397 0.66073537
-0.20015302 -0.2156956 0.68944395
-0.18710735 -0.20934305 0.66913891
-0.18960775 -0.22057046 0.70502591
-0.16854078 -0.20250067 0.64726806
-0.14320469 -0.22827128 0.7296406
-0.12310301 -0.2257266 0.72150683
-0.12398846 -0.23319264 0.74537122
-0.059563428 -0.21354675 0.68257558
-0.05412516 -0.22747976 0.72711051
0.042106658 -0.23549102 0.75271749
0.050592065 -0.23756309 0.75934076
0.074686706 -0.20560046 0.65717626
0.081010461 -0.2074063 0.66294825
0.13505048 -0.20991312 0.67096102
0.13465247 -0.20494205 0.6550715
0.19352049 -0.21929276 0.70094192
0.19442549 -0.2137008 0.6830678
0.18524331 -0.19483028 0.62275064
0.18545777 -0.19366431 0.6190238
0.22919524 -0.21902427 0.70008373
0.27575827 -0.23042522 0.73652542
0.2761445 -0.22943817 0.73337042
0.30182785 -0.22870798 0.73103654
0.30935001 -0.22734641 0.72668433
0.32180607 -0.22736806 0.72675347
0.33313543 -0.22662163 0.72436774
0.41540843 -0.22017208 0.7037524
0.4185248 -0.22102343 0.70647383
0.42932111 -0.21959455 0.70190656
0.47372174 -0.22500734 0.71920788
0.41476357 -0.17537808 0.56057405
-0.39972749 -0.21873772 0.70354009
-0.38640398 -0.21467717 0.69047987
-0.37839741 -0.21103495 0.67876518
-0.36734164 -0.20725285 0.66660047
-0.28034014 -0.17292204 0.55618024
-0.28509369 -0.18044513 0.58037722
-0.30665821 -0.19753192 0.63533461
-0.33630019 -0.21954212 0.70612729
-0.31878144 -0.21288244 0.6847074
-0.32209721 -0.22329757 0.71820641
-0.21785595 -0.20736112 0.66694891
-0.19201672 -0.22556995 0.72551513
-0.13175708 -0.2042693 0.65700448
-0.13505188 -0.22368115 0.71943998
-0.12297645 -0.22985192 0.73928738
-0.11945838 -0.22618254 0.72748554
-0.11460873 -0.22581816 0.72631323
-0.10975453 -0.21922304 0.70510113
-0.10037962 -0.22523992 0.72445345
-0.00285393 -0.227155 0.73061323
0.0097966194 -0.23087725 0.74258518
0.082380831 -0.22537173 0.7248776
0.084696233 -0.21179061 0.68119562
0.092318058 -0.21599746 0.69472635
0.098494947 -0.21651924 0.69640481
0.11286002 -0.23066835 0.74191332
0.12233531 -0.23059475 0.74167669
0.14537305 -0.23451464 0.75428426
0.13928413 -0.22222763 0.71476483
0.18025917 -0.22002974 0.70769572
0.18456405 -0.2234097 0.71856678
0.18715709 -0.22467878 0.72264886
0.19482017 -0.19521341 0.62787712
0.2857917 -0.2269599 0.72998583
0.30134648 -0.23050395 0.74138451
0.30365789 -0.22866468 0.73546886
0.30249059 -0.22545144 0.7251339
0.33484763 -0.22428608 0.7213856
0.38201272 -0.22124103 0.7115916
0.38087982 -0.21971016 0.7066679
0.44395328 -0.24632582 0.79227352
0.4177314 -0.22082691 0.71025968
0.41705853 -0.21967286 0.70654798
0.4185251 -0.21965 0.70647442
0.41654235 -0.21473566 0.69066823
0.41576523 -0.21357822 0.6869452
0.44110322 -0.22266272 0.71616423
0.45220268 -0.22360982 0.71921062
0.47011256 -0.22190535 0.71372855
0.47358441 -0.22210273 0.71436334
0.36408812 -0.1702022 0.54743207
0.38623333 -0.17493281 0.56264758
0.41880476 -0.18620643 0.59890759
-0.38071823 -0.21854235 0.70733523
-0.28018028 -0.17546284 0.56790376
-0.28126937 -0.17691128 0.5725919
-0.22012888 -0.20552465 0.66520214
-0.2185985 -0.20542258 0.66487169
-0.21793392 -0.21456178 0.69445169
-0.21726049 -0.21536556 0.69705319
-0.20558794 -0.21719965 0.70298958
-0.19097565 -0.22475907 0.72745621
-0.18346937 -0.21949901 0.71043146
-0.1667705 -0.21179071 0.68548274
-0.14948863 -0.20419469 0.66089749
-0.14510874 -0.20399483 0.66025066
-0.14322254 -0.205337 0.66459465
-0.13963407 -0.20633136 0.66781294
-0.13256681 -0.20208555 0.65407109
-0.13172778 -0.20513304 0.66393459
-0.11963813 -0.20879968 0.67580211
-0.12505686 -0.22933185 0.74225628
-0.11323383 -0.23110479 0.74799478
-0.11043634 -0.22862317 0.73996282
-0.034138769 -0.21618386 0.69970167
-0.016172796 -0.21591809 0.69884145
0.07611227 -0.21929307 0.70976484
0.093789637 -0.2146163 0.69462812
0.13806397 -0.21652827 0.70081639
0.13684303 -0.2035706 0.65887749
0.13900751 -0.20468397 0.66248119
0.19295555 -0.21264245 0.68823946
0.1866129 -0.20105444 0.65073371
0.18019623 -0.19128974 0.6191293
0.26353908 -0.22519089 0.72885394
0.42639202 -0.24346019 0.78798425
0.44251692 -0.24492764 0.79273379
0.42920989 -0.23665628 0.76596272
0.40811634 -0.21836258 0.70675325
0.40443814 -0.21559653 0.69780064
0.4214738 -0.21746053 0.7038337
0.42541862 -0.20763814 0.67204249
0.4297117 -0.20832671 0.67427111
0.36825693 -0.16783817 0.54322577
0.3898524 -0.17712218 0.57327449
0.39929843 -0.17916144 0.57987475
0.41797084 -0.1835514 0.59408343
0.41704464 -0.18094583 0.58565021
-0.38560766 -0.21236633 0.69169879
-0.29307458 -0.1755386 0.57174706
-0.28207448 -0.17784885 0.57927179
-0.32399786 -0.21075718 0.68645763
-0.33802569 -0.22393849 0.72939038
-0.31957474 -0.22088322 0.71943927
-0.29027548 -0.21512371 0.70067978
-0.25056875 -0.22241695 0.72443485
-0.21750966 -0.21573511 0.70267105
-0.20522253 -0.21234538 0.69163048
-0.16726467 -0.21108156 0.68751419
-0.15998426 -0.20735902 0.67538941
-0.12474871 -0.23024812 0.74994147
-0.013869688 -0.22569273 0.7351042
0.0082839727 -0.23005833 0.74932325
0.11213738 -0.20872854 0.6798501
0.14191481 -0.20764987 0.67633688
0.14831144 -0.21482137 0.69969511
0.16657051 -0.22119497 0.72045434
0.18517542 -0.22509244 0.73314881
0.24362361 -0.22552688 0.73456407
0.28686267 -0.22373967 0.72874308
0.29565263 -0.22689942 0.73903441
0.30066675 -0.22358051 0.7282244
0.32561648 -0.22577092 0.73535872
0.33019125 -0.22567499 0.73504627
0.32946879 -0.22201218 0.72311616
0.40618837 -0.22003548 0.71667802
0.4353106 -0.21774597 0.70922077
0.44921291 -0.21075593 0.68645346
0.359752 -0.16501114 0.53745794
0.39685714 -0.17749636 0.57812381
0.39245766 -0.16719925 0.54458487
-0.3877641 -0.21220157 0.69556701
-0.37350824 -0.20597956 0.67517221
-0.39087033 -0.22421707 0.73495209
-0.29395473 -0.17495073 0.57346404
-0.33333135 -0.21352157 0.69989383
-0.32217202 -0.21111028 0.6919899
-0.32064649 -0.21107976 0.69188964
-0.32000506 -0.21977998 0.72040796
-0.31656703 -0.22168545 0.7266537
-0.28645885 -0.20986801 0.68791795
-0.25129032 -0.19726521 0.64660764
-0.2163181 -0.20471358 0.6710223
-0.18607204 -0.21276736 0.69742167
-0.16512802 -0.20890072 0.6847471
-0.12045321 -0.22378741 0.73354363
-0.052362382 -0.20861055 0.68379617
-0.027207419 -0.21783566 0.71403468
-0.011049837 -0.23100607 0.75720549
0.0018914342 -0.23027201 0.75479937
0.018533528 -0.20082904 0.65828943
0.030866802 -0.2297997 0.75325119
0.14450422 -0.21009979 0.68867755
0.19164693 -0.21853839 0.71633816
0.19176847 -0.20554052 0.67373288
0.23175991 -0.22477414 0.73677814
0.26566237 -0.22548093 0.73909485
0.27507365 -0.22160904 0.72640312
0.28111875 -0.22147886 0.72597647
0.2861445 -0.22176619 0.72691846
0.30425847 -0.22138043 0.72565413
0.32597756 -0.22567926 0.73974502
0.43142772 -0.24132861 0.79104125
0.41166925 -0.20898268 0.6850158
0.41996831 -0.21094497 0.69144785
0.47321838 -0.2213354 0.72550631
0.36967862 -0.16849045 0.55228806
0.40702391 -0.17977116 0.58926475
0.39262944 -0.17234693 0.56492913
0.38893932 -0.16662773 0.54618227
0.389144 -0.16621654 0.54483449
0.40475756 -0.16835155 0.55183268
0.41540903 -0.1712845 0.56144643
-0.40775156 -0.21673183 0.71497321
-0.40645561 -0.21767454 0.71808326
-0.38845527 -0.21122496 0.69680667
-0.38181353 -0.21167116 0.6982789
-0.29287869 -0.17319939 0.57136488
-0.27971184 -0.17038608 0.56208408
-0.33746523 -0.21479185 0.70857346
-0.2664215 -0.20667371 0.68179274
-0.24467817 -0.19736305 0.65107799
-0.23545776 -0.19434699 0.6411283
-0.25021443 -0.22065285 0.72790837
-0.21328776 -0.21179299 0.69868064
-0.19237573 -0.19940424 0.65781176
-0.17290743 -0.19489269 0.64292848
-0.18722606 -0.21618623 0.71317339
-0.18510421 -0.21908732 0.72274375
-0.15141055 -0.20291537 0.66939437
-0.15178138 -0.20535277 0.67743504
-0.14062186 -0.20597357 0.67948294
-0.13828342 -0.204662 0.67515635
-0.12813984 -0.21941525 0.72382557
-0.025989279 -0.23288278 0.76825333
0.0018951595 -0.22925305 0.75627947
0.0067897737 -0.23079386 0.76136243
0.017079353 -0.19899949 0.6564765
0.084011108 -0.219946 0.72557664
0.099194944 -0.22628169 0.74647737
0.1681574 -0.21261194 0.70138228
0.18374377 -0.2168531 0.71537328
0.20465565 -0.21633077 0.71365023
0.20107245 -0.20789471 0.6858207
0.20304835 -0.20841828 0.68754804
0.22461516 -0.22250384 0.73401427
0.22979495 -0.22449891 0.74059582
0.23989454 -0.22506379 0.74245942
0.25160843 -0.22418939 0.73957491
0.26512468 -0.21839583 0.72046268
0.31417662 -0.22149453 0.730685
0.32569849 -0.22404897 0.73911166
0.36259317 -0.22737238 0.75007522
0.39067698 -0.21629333 0.71352673
0.39743578 -0.2125673 0.70123494
0.40591562 -0.20547931 0.67785239
0.40165973 -0.17572759 0.57970512
0.40918249 -0.16861595 0.55624461
0.42259705 -0.17363937 0.57281613
-0.40131456 -0.21516778 0.71439564
-0.37561962 -0.20450357 0.67898893
-0.38647228 -0.21205077 0.70404685
-0.3872183 -0.22106773 0.73398483
-0.31081331 -0.19057268 0.63273573
-0.32671094 -0.2011956 0.6680057
-0.31313872 -0.20350988 0.67568946
-0.33759311 -0.22248104 0.73867726
-0.33204499 -0.22193852 0.73687589
-0.27026105 -0.20494466 0.68045318
-0.24501963 -0.19200286 0.63748407
-0.25620794 -0.21259232 0.70584476
-0.25259018 -0.21726643 0.72136366
-0.19327809 -0.19905458 0.66089714
-0.18838988 -0.21438944 0.71181154
-0.15436624 -0.20362549 0.67607331
-0.13774656 -0.22355594 0.74224615
-0.12808071 -0.21276967 0.70643353
-0.061780334 -0.20327769 0.67491877
-0.060905159 -0.20518918 0.68126512
-0.045213938 -0.21360798 0.70921695
-0.042158797 -0.22144702 0.73524392
-0.038515672 -0.22778256 0.75627911
-0.00947164 -0.22903292 0.76043046
0.045402229 -0.20524374 0.68144631
0.050334364 -0.2075641 0.68915021
0.065918803 -0.21029124 0.69820476
0.081990182 -0.19861311 0.65943134
0.089146823 -0.2053588 0.68182838
0.14002106 -0.2212718 0.73466229
0.13882065 -0.20554462 0.68244529
0.15876919 -0.21897556 0.72703838
0.16280115 -0.21607719 0.71741533
0.16537619 -0.21744686 0.72196281
0.17628831 -0.22345479 0.74191034
0.18561536 -0.21765688 0.72265995
0.20313305 -0.22160214 0.7357589
0.23629898 -0.22322179 0.74113655
0.25142735 -0.22259118 0.73904276
0.26369172 -0.22361495 0.74244201
0.28102523 -0.21738315 0.72175109
0.2822628 -0.21714845 0.72097206
0.28539336 -0.21718545 0.72109497
0.29087186 -0.21782559 0.72322035
0.29260755 -0.21796706 0.72369003
0.33229232 -0.22493668 0.74683034
0.33706874 -0.22707918 0.75394392
0.42168915 -0.23752882 0.78863835
0.41189241 -0.20282388 0.67341208
0.41072303 -0.17964862 0.59646583
0.39037055 -0.16510913 0.54819214
-0.38604373 -0.21209997 0.70878565
-0.37702113 -0.20878136 0.69769585
-0.38409287 -0.21875408 0.731022
-0.33520985 -0.20782143 0.69448793
-0.33419997 -0.21579544 0.72113514
-0.34063232 -0.22199661 0.74185789
-0.31014797 -0.2109676 0.70500183
-0.28926831 -0.204722 0.68413019
-0.28622022 -0.2078173 0.6944741
-0.28695565 -0.20943739 0.69988799
-0.28972593 -0.2125674 0.71034777
-0.24534468 -0.19208461 0.64189947
-0.24604893 -0.1948148 0.65102303
-0.24460942 -0.19815755 0.66219366
-0.26516467 -0.21605943 0.72201729
-0.24718854 -0.21254496 0.71027291
-0.24451844 -0.21419552 0.71578848
-0.19024934 -0.2133846 0.71307862
-0.19138379 -0.21639051 0.72312367
-0.15186955 -0.19903879 0.6651386
-0.056690097 -0.21551836 0.72020924
-0.053983718 -0.2234305 0.7466495
-0.027531058 -0.22906104 0.7654655
0.027068198 -0.20854372 0.6969018
0.046795309 -0.20364289 0.68052435
0.073229462 -0.20850414 0.69676948
0.074457586 -0.20777562 0.69433475
0.087801158 -0.20429291 0.68269646
0.1352506 -0.21974625 0.73433769
0.13615853 -0.2186837 0.73078692
0.22391158 -0.22206342 0.7420814
0.22542417 -0.22044067 0.73665833
0.23013115 -0.2219432 0.74167931
0.24189371 -0.22255591 0.74372685
0.25488985 -0.21870378 0.73085403
0.26244193 -0.21465942 0.71733868
0.27369201 -0.21386591 0.71468699
0.29726112 -0.21770249 0.72750795
0.30398011 -0.2191837 0.73245776
0.3257848 -0.22231165 0.74291074
0.32950062 -0.22375681 0.74773991
0.33511215 -0.22323637 0.74600089
0.38543403 -0.20505016 0.68522716
0.3739894 -0.18361247 0.61358762
0.37104261 -0.16587874 0.55432582
0.41802162 -0.18222624 0.60895514
0.38878155 -0.16288666 0.54432714
-0.38336354 -0.2134469 0.71795177
-0.38353384 -0.21790282 0.73293972
-0.35291624 -0.20904608 0.7031492
-0.30189282 -0.21014394 0.70684183
-0.30070004 -0.21036631 0.70758986
-0.29066625 -0.20541304 0.69092917
-0.24659352 -0.21460974 0.72186291
-0.18933548 -0.21617514 0.72712851
-0.13668546 -0.20049661 0.67439198
-0.13514751 -0.20697111 0.69616961
-0.1368899 -0.22185233 0.74622416
-0.11922494 -0.21870531 0.73563898
-0.037174895 -0.22652143 0.76192939
-0.03089866 -0.22827852 0.76783955
-0.029293284 -0.22855733 0.76877737
0.014873624 -0.20338225 0.68409824
0.029705882 -0.20483477 0.68898404
0.048553109 -0.22383441 0.75289118
0.060912728 -0.21091123 0.70942283
0.066737622 -0.20550248 0.69122982
0.080875695 -0.2076631 0.69849741
0.14174831 -0.21625884 0.7274102
0.14218134 -0.21000925 0.70638871
0.23044109 -0.22079808 0.74267828
0.23600382 -0.22006448 0.74021053
0.24277183 -0.22191253 0.74642682
0.24986255 -0.22254419 0.74855149
0.28076422 -0.21437721 0.7210809
0.28324378 -0.21392193 0.71954954
0.2940622 -0.21622247 0.72728765
0.29553461 -0.21616243 0.72708571
0.301162 -0.21798605 0.73321962
0.30509186 -0.21855596 0.73513639
0.33125371 -0.22348568 0.75171816
0.32951301 -0.2212382 0.74415863
0.33736932 -0.22434726 0.75461626
0.39625269 -0.21432227 0.72089624
0.40431315 -0.2153327 0.72429478
0.39883649 -0.21000364 0.70636988
0.3882221 -0.20364387 0.68497825
0.36737907 -0.16745132 0.56324053
0.37380207 -0.16709369 0.56203771
0.37219405 -0.16584194 0.55782735
0.37621975 -0.16710043 0.56206024
0.36839712 -0.16310513 0.54862177
-0.39605731 -0.21145478 0.71593308
-0.38414842 -0.20831598 0.70530593
-0.37653363 -0.20661904 0.69956052
-0.3322804 -0.20066248 0.67939329
-0.34219807 -0.22323637 0.75582278
-0.30719462 -0.20929387 0.70861685
-0.28373545 -0.20986623 0.7105546
-0.25909719 -0.2059747 0.69737899
-0.194362 -0.21690209 0.73437631
-0.14773184 -0.19474599 0.65936136
-0.14568587 -0.19578423 0.66287661
-0.14283165 -0.19383354 0.65627205
-0.12871374 -0.21474335 0.72706735
-0.12386853 -0.21442628 0.72599399
-0.11182129 -0.21513103 0.72837996
-0.10413763 -0.2090812 0.70789683
-0.066504106 -0.22509439 0.76211333
-0.035046071 -0.22187269 0.75120568
0.01391843 -0.20968901 0.70995474
0.083649069 -0.20218296 0.68454111
0.089392573 -0.20529297 0.69507086
0.11177564 -0.22011548 0.74525607
0.11876601 -0.21832503 0.73919404
0.1448437 -0.20388256 0.69029546
0.2012223 -0.22393449 0.75818622
0.19812578 -0.21032554 0.71210968
0.26758218 -0.2087041 0.7066201
0.3972072 -0.22206853 0.75186849
0.42843407 -0.23111154 0.78248584
0.42221087 -0.22002454 0.74494803
0.42542893 -0.21759848 0.73673427
0.44351655 -0.225183 0.76241362
0.41956741 -0.21224371 0.71860433
0.38443273 -0.16696587 0.56530476
-0.38140535 -0.21298924 0.72590721
-0.35569257 -0.20882402 0.71171141
-0.33252114 -0.21347994 0.72757936
-0.30908024 -0.20514657 0.69917774
-0.28029585 -0.20164014 0.68722725
-0.27703503 -0.20576398 0.70128202
-0.27270895 -0.20818262 0.70952523
-0.24893624 -0.2073288 0.70661533
-0.23564647 -0.20627183 0.70301294
-0.21047907 -0.19545862 0.66615951
-0.1904116 -0.19828445 0.67579043
-0.18766804 -0.20474623 0.69781351
-0.17222136 -0.19566911 0.66687703
-0.17985374 -0.20954336 0.71416306
-0.17637886 -0.21652052 0.73794222
-0.170845 -0.21354641 0.72780609
-0.14866328 -0.19847029 0.67642379
-0.13467839 -0.21050797 0.71745038
-0.1204745 -0.20717797 0.7061013
-0.12110421 -0.21361279 0.72803223
-0.11583391 -0.21834397 0.74415708
-0.090207785 -0.21791461 0.74269366
-0.083778977 -0.21366416 0.72820747
-0.073901415 -0.22137426 0.75448477
-0.044257939 -0.20369236 0.6942215
-0.043754533 -0.21584851 0.73565197
0.042028368 -0.20479523 0.6979804
0.086179167 -0.20336986 0.69312251
0.13808972 -0.21258484 0.72452891
0.15940234 -0.21844801 0.74451149
0.18993485 -0.21879154 0.74568224
0.20136666 -0.2208413 0.7526685
0.20320117 -0.21934861 0.74758089
0.20170856 -0.21271934 0.72498727
0.2324681 -0.21393232 0.72912121
0.24238801 -0.21443617 0.73083866
0.2560358 -0.21151602 0.72088611
0.25444585 -0.20894513 0.71212387
0.25394654 -0.20606975 0.70232403
0.25486487 -0.20559965 0.70072198
0.26182866 -0.20402381 0.69535112
0.28125978 -0.21078949 0.71841013
0.39271903 -0.20963274 0.71446741
0.42971277 -0.21915387 0.74691737
0.40873492 -0.17525047 0.59728634
-0.38070029 -0.20948242 0.71871793
-0.37836823 -0.20989305 0.72012675
-0.37630415 -0.21668091 0.74341536
-0.33365861 -0.21788555 0.74754846
-0.31279433 -0.20824975 0.71448874
-0.30701187 -0.20847106 0.71524799
-0.29002458 -0.20300105 0.69648075
-0.28693077 -0.20291863 0.69619799
-0.27533254 -0.19779357 0.67861438
-0.27940243 -0.20178027 0.69229245
-0.26168185 -0.19734353 0.67707026
-0.25523847 -0.21245793 0.72892666
-0.23998266 -0.20348541 0.69814265
-0.18867329 -0.18667591 0.6404705
-0.18924242 -0.20347859 0.69811904
-0.18564251 -0.2061083 0.70714152
-0.13056761 -0.19603409 0.67257774
-0.11525765 -0.21882278 0.75076389
-0.10749227 -0.20992498 0.72023642
-0.056267232 -0.22031613 0.75588739
-0.048548758 -0.20167533 0.69193232
-0.047495708 -0.20350015 0.69819331
0.018316895 -0.20520584 0.7040453
0.083794236 -0.20711248 0.71058691
0.10760468 -0.21845104 0.74948847
0.14457786 -0.20289569 0.69611931
0.2029919 -0.2176706 0.74681103
0.22603875 -0.21087813 0.72350633
0.25385571 -0.20224003 0.69386995
0.26113373 -0.20328777 0.69746459
0.39672923 -0.21888103 0.75096393
0.40411532 -0.22205767 0.76186264
0.42939472 -0.23220588 0.79668021
0.43493658 -0.22034816 0.75599718
0.44771016 -0.22514662 0.77246058
0.37797117 -0.16889916 0.57947981
0.38124359 -0.16548114 0.56775284
0.37770861 -0.16342656 0.56070387
0.37570375 -0.16204496 0.55596375
-0.39550823 -0.20461963 0.70674849
-0.39265311 -0.2137557 0.73830426
-0.37984523 -0.21102361 0.72886777
-0.37390614 -0.21660778 0.74815524
-0.30212212 -0.20277254 0.700369
-0.29198527 -0.20094728 0.69406462
-0.27124405 -0.20096743 0.694134
-0.19596688 -0.19688427 0.68003106
-0.17075711 -0.20500794 0.70808983
-0.16914037 -0.21447226 0.74077916
-0.16545835 -0.21796471 0.75284207
-0.1361524 -0.20762736 0.7171371
-0.12849931 -0.20764479 0.7171973
-0.11961451 -0.21946856 0.75803649
-0.099911824 -0.19663526 0.67917085
-0.088588193 -0.19727968 0.68139672
-0.09650147 -0.22605088 0.78077137
-0.084172398 -0.22432479 0.7748096
-0.055103391 -0.22065532 0.76213527
-0.05067502 -0.20910387 0.72223699
0.015248001 -0.20304725 0.70131767
0.031740457 -0.20307203 0.70140338
0.046523154 -0.20886545 0.72141337
0.082245201 -0.21353891 0.73755538
0.088898242 -0.20012578 0.69122696
0.096051574 -0.21269441 0.73463869
0.099524915 -0.21340831 0.73710454
0.10910141 -0.22001205 0.75991344
0.1607953 -0.219629 0.75859046
0.1734035 -0.21714436 0.75000846
0.24119204 -0.19780292 0.68320405
0.35983747 -0.21647032 0.74768054
0.45155823 -0.23067078 0.79672861
0.38913661 -0.17502257 0.60452139
0.37512195 -0.16596392 0.57323313
0.38172102 -0.16778748 0.57953167
-0.41523367 -0.21096486 0.73359144
-0.39740759 -0.20344448 0.70744073
-0.38615978 -0.19844146 0.69004357
-0.37162253 -0.19170317 0.66661239
-0.38712287 -0.21188438 0.73678887
-0.37265408 -0.20733893 0.72098291
-0.37734801 -0.21620901 0.75182688
-0.34830946 -0.2066094 0.71844614
-0.34059352 -0.20658632 0.71836579
-0.34619039 -0.21886072 0.76104784
-0.28143087 -0.20053355 0.69731855
-0.27498472 -0.19910359 0.69234598
-0.27428418 -0.20522261 0.71362376
-0.25393587 -0.20603831 0.71646023
-0.24579401 -0.20436168 0.71063006
-0.19348879 -0.18888627 0.6568172
-0.1954037 -0.19356443 0.67308462
-0.19755827 -0.20011868 0.69587576
-0.17705849 -0.19881114 0.69132912
-0.16716208 -0.21455716 0.74608278
-0.16328084 -0.21365167 0.74293423
-0.13356964 -0.18754174 0.65214181
-0.13932294 -0.20414095 0.70986259
-0.1397801 -0.20706579 0.72003293
-0.10477358 -0.19903526 0.69210827
-0.10352367 -0.21486244 0.74714458
-0.066820383 -0.21494479 0.74743092
-0.048514441 -0.21884362 0.76098835
0.041609108 -0.22240497 0.77337241
0.086825967 -0.21174265 0.73629606
0.11741516 -0.21015823 0.73078644
0.19626993 -0.21615306 0.75163257
0.20507479 -0.21361078 0.74279213
0.21757442 -0.21186893 0.73673511
0.22559577 -0.21349928 0.74240446
0.22362715 -0.21015795 0.73078561
0.25215101 -0.19820184 0.6892103
0.25814861 -0.20057274 0.69745469
0.355088 -0.21504366 0.74777472
0.35991925 -0.21317205 0.74126649
0.37376547 -0.17759426 0.61755133
0.38661253 -0.17214796 0.5986129
0.38126683 -0.16700424 0.5807265
-0.41527146 -0.20955759 0.73365808
-0.40814745 -0.2174585 0.76131904
-0.37553126 -0.21741669 0.76117277
-0.29241252 -0.2058596 0.72071159
-0.26931357 -0.20239216 0.70857203
-0.24750732 -0.20313962 0.71118879
-0.21978855 -0.18729109 0.65570343
-0.20348859 -0.18521106 0.64842141
-0.19381747 -0.18930134 0.6627413
-0.19436502 -0.19265214 0.67447245
-0.20444061 -0.20883454 0.73112667
-0.18761651 -0.19769323 0.69212115
-0.17192057 -0.19666037 0.68850529
-0.14021048 -0.19351555 0.67749512
-0.13710026 -0.20626472 0.72212994
-0.1199494 -0.20335479 0.71194232
-0.07412301 -0.21153677 0.74058712
-0.07142812 -0.21294051 0.74550164
-0.046974421 -0.21776469 0.76239121
-0.038831085 -0.20092329 0.70342946
0.019808829 -0.20096822 0.70358682
0.096478701 -0.2073807 0.72603667
0.11427081 -0.20588626 0.72080481
0.16172034 -0.21792562 0.76295447
0.16878629 -0.21862921 0.7654177
0.19344452 -0.21334729 0.74692583
0.24104601 -0.19621596 0.68694913
0.35509855 -0.21359609 0.74779689
0.36439484 -0.21249293 0.74393451
0.40294939 -0.21270058 0.74466157
0.44779927 -0.22653244 0.79308689
0.37975854 -0.17859125 0.62524533
0.39645088 -0.17026398 0.59609163
-0.3807824 -0.19755936 0.69639289
-0.37855735 -0.21488401 0.75746191
-0.31280011 -0.20469533 0.72154701
-0.30799073 -0.20457397 0.7211194
-0.27704203 -0.20448312 0.72079909
-0.27539688 -0.20440555 0.7205255
-0.20215879 -0.20828205 0.73419023
-0.19274405 -0.20171376 0.71103692
-0.17276558 -0.20324045 0.71641862
-0.15927796 -0.19075496 0.67240775
-0.1593546 -0.19258451 0.67885661
-0.16103452 -0.20389734 0.71873415
-0.15998931 -0.20452498 0.72094643
-0.15481117 -0.20791808 0.73290718
-0.13636926 -0.20376837 0.71827948
-0.11663064 -0.21856387 0.77043331
-0.10043575 -0.1965396 0.69279814
-0.10157147 -0.2112183 0.74454033
-0.098412246 -0.21474181 0.75696075
-0.072014421 -0.19575927 0.6900475
-0.044775948 -0.21356855 0.7528249
-0.0058942884 -0.20439658 0.72049379
0.040807664 -0.20695041 0.729496
0.056459367 -0.20716977 0.73026943
0.06346029 -0.20967285 0.73909283
0.087149143 -0.2135272 0.75267923
0.13585275 -0.21679902 0.76421237
0.14257592 -0.21462564 0.75655127
0.16245264 -0.21525189 0.75875854
0.19910431 -0.21282549 0.75020576
0.24725956 -0.19399552 0.6838305
0.24991065 -0.19265904 0.67911923
0.4192273 -0.22242229 0.78403413
0.44093239 -0.21987566 0.77505744
0.3813675 -0.17033477 0.60042679
0.41015673 -0.17551528 0.61868787
0.37902617 -0.15911585 0.56088018
-0.38535282 -0.19933955 0.70751715
-0.34935224 -0.19445208 0.69017005
-0.32642812 -0.19224511 0.68233681
-0.35880059 -0.21418114 0.76019442
-0.34269851 -0.21028274 0.74635792
-0.3149991 -0.20779507 0.73752832
-0.30147123 -0.20609058 0.73147869
-0.27027696 -0.20035093 0.7111069
-0.244919 -0.19827865 0.70375168
-0.24331658 -0.19943096 0.70784152
-0.21363032 -0.18670829 0.66268492
-0.20904127 -0.18767469 0.66611505
-0.20541346 -0.18568234 0.65904343
-0.20039579 -0.20347126 0.7221818
-0.18064336 -0.19872229 0.7053262
-0.15945825 -0.20244893 0.7185533
-0.14473625 -0.20777129 0.73744404
-0.14172766 -0.20569238 0.73006523
-0.1281143 -0.20146149 0.71504855
-0.11978441 -0.21101819 0.74896836
-0.099167883 -0.21490762 0.76277316
-0.076480344 -0.21529274 0.76413989
-0.053649351 -0.203059 0.72071862
-0.037949547 -0.20148976 0.71514893
-0.037517875 -0.20755789 0.73668647
-0.033890694 -0.2046712 0.72644079
-0.0073137283 -0.19970535 0.70881546
0.033407241 -0.19861372 0.70494092
0.05365023 -0.20695563 0.73454893
0.060139 -0.20767675 0.73710847
0.084864497 -0.21861072 0.77591646
0.089396477 -0.20611775 0.73157513
0.17486012 -0.20921807 0.74257898
0.42897123 -0.2233537 0.79275072
0.4250834 -0.21454979 0.76150298
0.43083918 -0.21337007 0.75731564
0.37785208 -0.16704585 0.59289682
0.3840434 -0.1675355 0.59463477
0.42850268 -0.18269821 0.64845192
0.42137122 -0.17736292 0.62951529
-0.42566794 -0.21121493 0.75487602
-0.36048716 -0.20011015 0.71518779
-0.37357745 -0.21186873 0.75721252
-0.37508589 -0.21364981 0.76357806
-0.32776582 -0.19430514 0.69444072
-0.29824901 -0.20568074 0.73509669
-0.26611012 -0.20040868 0.71625471
