# .PCD v0.7 - Point Cloud Data file format
VERSION 0.7
FIELDS x y z
SIZE 4 4 4
TYPE F F F
COUNT 1 1 1
WIDTH 1369
HEIGHT 1
VIEWPOINT 0 0 0 1 0 0 0
POINTS 1369
DATA ascii
-0.1927025 -0.013029374 0.75241166
-0.13212085 -0.012619086 0.72871751
-0.10854119 -0.01259391 0.72726518
-0.090853542 -0.012729168 0.73507529
0.07653138 -0.009370327 0.54111218
0.090130061 -0.0091082826 0.52598006
0.097674638 -0.0089751258 0.518291
0.12777743 -0.0073332414 0.42347616
0.12423876 -0.0069336891 0.40040332
0.11404088 -0.0056973994 0.32900929
0.11527839 -0.0057239309 0.33054155
0.38938114 -0.010797635 0.62353432
0.38980606 -0.010149397 0.58610064
-0.43550852 -0.011872567 0.77232736
-0.41910267 -0.011736728 0.7634905
-0.35422578 -0.011182591 0.72744268
-0.29566538 -0.010432921 0.67867595
-0.29352775 -0.010671638 0.69420403
-0.27476284 -0.010634474 0.69178766
-0.26971012 -0.010610208 0.69020879
-0.27443391 -0.010855407 0.70615989
-0.26471528 -0.010767058 0.70041257
-0.26403835 -0.010924883 0.71067876
-0.25069019 -0.010938935 0.7115944
-0.19392821 -0.011355706 0.73870319
-0.16491356 -0.011314854 0.73604733
-0.094346195 -0.010800466 0.70258576
0.0057139695 -0.0098494068 0.64071864
0.070746332 -0.0085991025 0.55938256
0.078019887 -0.0083537549 0.54342359
0.08121708 -0.0083243474 0.54150862
0.080639333 -0.0080360696 0.52275753
0.091879398 -0.0078508407 0.51070821
0.12637416 -0.006348446 0.41297489
0.11931804 -0.0051643401 0.33594787
0.1210297 -0.005176127 0.33671457
0.12367329 -0.0052270442 0.34002554
0.12596163 -0.005261898 0.34229404
0.13920954 -0.0048328638 0.31438488
0.13955799 -0.0048216954 0.313658
0.39690778 -0.0095101297 0.61864799
-0.41692516 -0.010360345 0.77154022
-0.37549391 -0.0098365769 0.73253566
-0.37124851 -0.0098485649 0.73342782
-0.34054047 -0.010196388 0.75933093
-0.30382079 -0.0093190074 0.69399124
-0.29141253 -0.0094456747 0.70342475
-0.27989072 -0.0092633739 0.6898492
-0.26517931 -0.0092133135 0.68611985
-0.25576672 -0.0096320137 0.71730059
-0.23704553 -0.009496212 0.707187
-0.21179456 -0.0097248107 0.72421294
-0.21168664 -0.010012582 0.74564153
-0.19971593 -0.010215454 0.76074964
-0.17122772 -0.0098849833 0.7361396
-0.1161429 -0.0096228942 0.71662277
0.0029525161 -0.0085386634 0.63587743
0.005687654 -0.0085641444 0.6377762
0.078912467 -0.0073806494 0.54964083
0.080939978 -0.0070458353 0.52470654
0.097902805 -0.0069759414 0.51950181
0.099481732 -0.0070089549 0.5219602
0.12478122 -0.0055927709 0.41649646
0.12547413 -0.0055839866 0.41584253
0.12048373 -0.0045279786 0.33720058
0.12380716 -0.0045708418 0.34039348
0.12942412 -0.0046954378 0.34967232
-0.44124335 -0.008851856 0.7708109
-0.42931661 -0.0087764561 0.76424342
-0.41904557 -0.0088008493 0.76637071
-0.32832643 -0.0086125061 0.74996716
-0.30490056 -0.0080768615 0.70332521
-0.29097855 -0.007902883 0.68817532
-0.28276762 -0.0079201013 0.68967354
-0.28525791 -0.0082036778 0.71436721
-0.2007734 -0.0083735362 0.72915906
-0.19976662 -0.0083967149 0.7311787
-0.20095544 -0.0086496919 0.75320655
-0.19282055 -0.0087186322 0.7592085
-0.10007498 -0.0082942545 0.72225541
-0.090270996 -0.0081069618 0.70594722
-0.025623381 -0.0077224895 0.67246598
0.072401494 -0.0063592345 0.55375373
0.073328048 -0.0063369721 0.55181921
0.080284208 -0.0063275099 0.55099303
0.12348077 -0.004801631 0.41812164
0.11872664 -0.0038620755 0.33630663
0.38839355 -0.0071180388 0.61983138
0.4000878 -0.0071375817 0.62153405
-0.42966214 -0.0073523074 0.7707234
-0.41976652 -0.0073233843 0.76768905
-0.39125085 -0.0070747733 0.74162871
-0.37609905 -0.0070581436 0.73988634
-0.33140749 -0.0071863532 0.75332743
-0.27704921 -0.006548509 0.68646187
-0.28030869 -0.0069571137 0.72929865
-0.27088058 -0.0068760961 0.72080153
-0.26285076 -0.0069489107 0.72843498
-0.25530457 -0.0068715066 0.72032219
-0.2315114 -0.0067611635 0.70875436
-0.19849895 -0.0072129294 0.7561143
-0.16608402 -0.0070045441 0.73426694
-0.11305884 -0.0069288015 0.72632998
-0.092164248 -0.0066532046 0.69743747
0.079669565 -0.0051405579 0.53886986
0.084789425 -0.0052434802 0.54966104
0.093070835 -0.0049350858 0.51733088
0.12072906 -0.0036863312 0.38643026
0.11744305 -0.0031928346 0.33469701
0.1256561 -0.0032573864 0.3414638
0.13625458 -0.0029073507 0.3047694
0.38856784 -0.0060181692 0.63086891
0.39382282 -0.0058753043 0.61589128
-0.42614362 -0.0058281571 0.76735383
-0.41871291 -0.0057709664 0.75982231
-0.40763375 -0.0057521164 0.75734144
-0.37757748 -0.0056180432 0.7396844
-0.34193364 -0.0057361722 0.75523871
-0.33595693 -0.0057168528 0.75269789
-0.33361399 -0.005731903 0.75467604
-0.30534536 -0.00532341 0.70089573
-0.27245072 -0.0051821396 0.68229455
-0.26779056 -0.0055060983 0.7249487
-0.24660306 -0.0050999671 0.67147601
-0.26041541 -0.0055470541 0.73033768
-0.23984224 -0.0056507662 0.74399453
-0.19647783 -0.005684346 0.74841517
-0.1933445 -0.0056395903 0.74252552
-0.19038394 -0.0056459233 0.74335891
-0.14424837 -0.0057064146 0.75132221
-0.12717181 -0.0055910647 0.73613292
-0.092239887 -0.0053014904 0.69801027
-0.031258434 -0.0050889105 0.67001969
-0.027023852 -0.0051005408 0.67155093
0.073106855 -0.0041123554 0.54144597
0.093331665 -0.0039402246 0.51878083
0.12308142 -0.0031884909 0.41980755
0.11627516 -0.0027698725 0.36468935
0.11649421 -0.0025369748 0.33402753
0.12004772 -0.0025671721 0.3380022
0.12076393 -0.0025670454 0.33798492
0.12868389 -0.0026254728 0.3456763
0.40032116 -0.004723385 0.62189645
-0.3988786 -0.004204385 0.74402982
-0.37080196 -0.004070729 0.72037858
-0.37648445 -0.0041852444 0.74064451
-0.34318781 -0.0042235702 0.74742347
-0.34394634 -0.0043132007 0.76328784
-0.30859417 -0.0040027648 0.70835298
-0.2673158 -0.0037427992 0.66234493
-0.28357384 -0.0041460767 0.73371333
-0.2698524 -0.0040347129 0.71400493
-0.25774086 -0.0040846318 0.72283703
-0.22987312 -0.0039001554 0.6901902
-0.22916964 -0.0042720065 0.75599939
-0.21228121 -0.00413201 0.73122078
-0.20948046 -0.0041077435 0.72692508
-0.20445006 -0.004261978 0.75422078
-0.1932877 -0.0041946471 0.74230725
-0.19314921 -0.0042974576 0.76050264
-0.16700748 -0.0041332468 0.73143774
-0.11237532 -0.0041947514 0.74232429
-0.10919839 -0.0041345358 0.73166913
0.084777921 -0.0031056106 0.54958665
0.09739992 -0.0028877854 0.51103753
0.1143811 -0.0018647164 0.32999092
0.12496093 -0.0019414201 0.34356576
0.39916798 -0.0033698305 0.59634411
0.40143672 -0.0033782274 0.59782457
-0.424914 -0.0028036386 0.75640625
-0.42190155 -0.002848804 0.76858956
-0.36595365 -0.0027493387 0.74175996
-0.34720376 -0.0027021319 0.72902173
-0.34372869 -0.0026871413 0.72497863
-0.34385282 -0.0027125701 0.73183876
-0.34145677 -0.0027309582 0.73679405
-0.3418299 -0.002798453 0.75500959
-0.30435592 -0.0026151389 0.70554751
-0.29852745 -0.0026037619 0.70247775
-0.24013241 -0.0025112182 0.67751527
-0.20626046 -0.0027133152 0.73203987
-0.19506046 -0.0027317554 0.7370159
-0.16880292 -0.0027148575 0.73244482
-0.14419854 -0.00278382 0.75106257
-0.097485334 -0.0026907921 0.72596306
0.0016230345 -0.0024005845 0.6476633
0.092766076 -0.0019342154 0.5218364
0.10781249 -0.0020506829 0.55326104
0.12146416 -0.0015468448 0.41733402
0.13617709 -0.0011398941 0.3075366
0.38512167 -0.0023095831 0.62311172
0.38823035 -0.0022655502 0.61123163
-0.42526171 -0.0013442412 0.76282996
-0.42383808 -0.0013500899 0.76615101
-0.42265785 -0.00136213 0.77297705
-0.40124461 -0.0013188943 0.74844331
-0.39819044 -0.0013141036 0.74571949
-0.38906318 -0.0013048723 0.74048191
-0.33618665 -0.0013272911 0.75321263
-0.30579042 -0.0012430102 0.70537776
-0.29301164 -0.0012150258 0.68949836
-0.28642917 -0.0012375265 0.70226485
-0.28010994 -0.0012631863 0.71682268
-0.27492976 -0.0012675449 0.71930355
-0.21398392 -0.0013182908 0.74810153
-0.13114393 -0.0012898445 0.73195785
-0.11363429 -0.0013227612 0.75064081
0.0959014 -0.0009175539 0.52069223
0.10773304 -0.00096365809 0.54685551
0.12174824 -0.00070111454 0.39785784
0.11606088 -0.0005864203 0.33278495
0.12031522 -0.00059695542 0.33875537
0.1276221 -0.00062198192 0.35295641
0.13280585 -0.0005209744 0.29564202
0.39302394 -0.0011052862 0.62722111
0.38712731 -0.0010776818 0.61155283
0.39893541 -0.0010921359 0.61974353
-0.42050463 0.00014060736 0.77205676
-0.41523013 0.00013943017 0.76537627
-0.37474006 0.00013482571 0.74032563
-0.36530113 0.00013370812 0.7340768
-0.33980545 0.0001367107 0.75053817
-0.27711964 0.00012989342 0.71307057
-0.26123482 0.00012806803 0.70313269
-0.24598357 0.00012268871 0.67370999
-0.19362232 0.00013326854 0.73158211
-0.14971295 0.0001359731 0.74654132
-0.1300576 0.0001322031 0.72589475
-0.1107083 0.00013509393 0.74178523
-0.1099197 0.00013609231 0.74720198
-0.099342972 0.00013265014 0.72820574
0.087749988 9.328872e-05 0.51209056
0.095034152 9.508431e-05 0.52204174
0.10494843 9.7028911e-05 0.53272063
0.13268158 6.6846609e-05 0.36694902
0.12727329 6.2637031e-05 0.34386134
0.15857092 6.7181885e-05 0.36879057
0.13358107 5.4948032e-05 0.30167389
-0.43243754 0.0016004145 0.7526179
-0.41112679 0.0016178414 0.7608102
-0.38461092 0.001575835 0.74105161
-0.3610827 0.0015631169 0.73507136
-0.35091931 0.0015529022 0.73026866
-0.33822936 0.0016037673 0.75417799
-0.33639461 0.0016026944 0.75367838
-0.31389445 0.0015172809 0.71351808
-0.2842105 0.0015135109 0.71174425
-0.24570015 0.0015199557 0.71477598
-0.23767677 0.0015782714 0.74219853
-0.2134475 0.0015520379 0.72986478
-0.1862714 0.0016139597 0.75897115
-0.18634591 0.001628764 0.76594454
0.084659964 0.0011834353 0.55653274
0.1185365 0.00080133229 0.37683433
0.11914751 0.00072646886 0.34163547
0.13262013 0.00064624846 0.30390435
-0.40885377 0.0030202568 0.74193102
-0.41121462 0.003085576 0.75797468
-0.39851546 0.0030381531 0.74632794
-0.38720521 0.0030370206 0.74605018
-0.37703735 0.0030068159 0.7386263
-0.36199677 0.0030130371 0.74015266
-0.33914042 0.0029790103 0.73179597
-0.33802012 0.0029968023 0.73616892
-0.28008115 0.0028400719 0.69766885
-0.28118882 0.0028975978 0.71179706
-0.26818183 0.002921626 0.71770221
-0.24598828 0.002987422 0.73386616
-0.23735838 0.0029580742 0.72665423
-0.23419847 0.0029771328 0.73133641
-0.22499442 0.0030429214 0.74749607
-0.21281953 0.0030516163 0.7496323
-0.21070582 0.0030442476 0.74781698
-0.19813435 0.003123194 0.76721793
-0.16703269 0.003006123 0.73846084
-0.11440215 0.0029119104 0.71531504
-0.098367423 0.0028460845 0.69914669
-0.10232624 0.0030063242 0.7385034
-0.085261643 0.0029618368 0.72757858
0.069188446 0.0022652596 0.55646896
0.075317234 0.0022707656 0.55781639
0.13822231 0.0015654266 0.38454586
0.15891364 0.0015196353 0.37329882
0.1366863 0.0012327954 0.30283946
0.39667669 0.0024124458 0.59262216
-0.40460107 0.0044859648 0.7457841
-0.40307176 0.0044866949 0.74590391
-0.39274493 0.0044066161 0.73258871
-0.39356786 0.0044874102 0.74602073
-0.38452119 0.0044564605 0.74087888
-0.36104408 0.004440397 0.73820478
-0.36116359 0.0044613481 0.74169034
-0.34560987 0.0044045672 0.73224741
-0.33489364 0.0045132414 0.75031596
-0.3172954 0.0043595657 0.72477013
-0.32799283 0.0045509785 0.75659281
-0.29195711 0.0042173415 0.70112199
-0.2852836 0.004229486 0.70314103
-0.28451908 0.0043322593 0.72022742
-0.28152075 0.0043334812 0.72043306
-0.25540432 0.0043345019 0.72060364
-0.24568197 0.004326053 0.71919519
-0.22123148 0.0044527054 0.74025136
-0.21263385 0.0045393407 0.75465959
-0.19943395 0.0043907911 0.72996098
-0.1816144 0.0044902638 0.74649638
-0.090029329 0.0045384169 0.754502
0.069028705 0.0033394769 0.5551846
0.083732635 0.0033109486 0.55043685
0.10137603 0.003095299 0.5145871
0.12004986 0.0024994388 0.41552609
0.13129553 0.0022644922 0.37646788
0.14220276 0.0023517162 0.39097023
-0.42816812 0.0060898513 0.76510984
-0.40976179 0.0059881508 0.75233287
-0.40016362 0.0059649423 0.74941462
-0.39759415 0.0059504211 0.74759489
-0.37684491 0.0058760643 0.73824948
-0.36063898 0.0059208497 0.74387795
-0.34139004 0.0058633387 0.73665029
-0.30710483 0.0056108758 0.70493418
-0.27712288 0.0057071149 0.71702248
-0.2715759 0.0056872368 0.71452457
-0.25107402 0.0056725815 0.71268374
-0.24159008 0.005700402 0.71617824
-0.23016584 0.0057982057 0.72846776
-0.20449314 0.0059574693 0.74847811
-0.20552969 0.006181106 0.776573
-0.14243716 0.0058400184 0.7337206
-0.11966994 0.0057261139 0.71941024
-0.093792051 0.0055593327 0.69845849
-0.092365086 0.0056547746 0.71044832
-0.088264436 0.0055874139 0.70198768
0.054465264 0.0041248202 0.51823008
0.06006828 0.0042069405 0.52854699
0.074004084 0.0043625012 0.54809088
0.080673367 0.0043431446 0.54565984
0.085325569 0.0043425113 0.54557723
0.092113644 0.0042259395 0.53093326
0.1181291 0.0033033267 0.41501826
0.122825 0.0033103526 0.41590118
0.14320663 0.003115572 0.39142984
0.14488366 0.0030625984 0.38477451
0.16402385 0.0032119453 0.40353763
0.16670945 0.0032305494 0.40587652
0.16342989 0.0031343773 0.39379352
0.38861778 0.0050220266 0.63095015
0.38792959 0.0049444884 0.62121004
0.39445725 0.0049765781 0.62524313
0.2653884 0.0030393228 0.38185012
-0.34174457 0.0073370337 0.74083179
-0.31517974 0.0071301088 0.7199375
-0.30872408 0.0070529357 0.71214515
-0.27551392 0.0068700463 0.69367868
-0.28021878 0.0070251599 0.70934135
-0.22944796 0.0073410571 0.74123865
-0.21303199 0.0071620047 0.72315878
-0.19756018 0.007639572 0.77137905
-0.1945608 0.0076512694 0.77256209
-0.16105175 0.0072573945 0.73279208
-0.1427708 0.0072836131 0.73543888
-0.13225326 0.0070578828 0.71264559
-0.11281851 0.0073808283 0.74525172
-0.10443386 0.0070308 0.70991105
0.053161114 0.0051135272 0.516321
0.077115566 0.0053999573 0.54524243
0.085517496 0.0054154173 0.54680449
0.094009668 0.0052374452 0.52883226
0.12530062 0.0041420609 0.41823018
0.13316914 0.0041644946 0.42049497
0.14324352 0.0038551092 0.38925666
0.15570083 0.0038961917 0.39340466
0.13883474 0.0031202734 0.31505924
0.14008406 0.0030593202 0.30890471
0.26141849 0.0037252009 0.37613797
-0.4304558 0.0090103 0.76048428
-0.42819992 0.0090312958 0.76225549
-0.42407408 0.0090475231 0.76362723
-0.37701586 0.0087508559 0.73858434
-0.35003909 0.0087473243 0.73828822
-0.34986389 0.0088628083 0.74803525
-0.3383829 0.0089396387 0.75452
-0.2738173 0.0083940178 0.70846945
-0.27291742 0.0084129572 0.71006781
-0.25370139 0.0082326382 0.69484812
-0.21595445 0.0083232671 0.70249766
-0.20826884 0.0086268634 0.7281211
-0.2033783 0.0087512434 0.73861927
-0.20210139 0.0087643266 0.73972398
-0.19882502 0.00875929 0.739299
-0.19120756 0.0089199692 0.75285763
-0.18263331 0.0089730173 0.75733787
-0.11685786 0.0088948011 0.75073582
-0.093663096 0.0082640052 0.69749802
0.036143035 0.0060397834 0.50976694
0.042892843 0.0060698539 0.51230532
0.043840975 0.0060495883 0.51059484
0.046018869 0.0060489625 0.51054287
0.051433891 0.0060441494 0.51013571
0.055235356 0.0061027557 0.51508206
0.08306101 0.0065615326 0.55380279
0.08470121 0.0065056607 0.54908931
0.10418472 0.0061327443 0.51761258
0.11309215 0.0050897002 0.42957962
0.11345974 0.0050651208 0.42750496
0.12390968 0.0052364543 0.44196439
0.12461975 0.0049996525 0.42197859
0.12614694 0.0049533844 0.4180724
0.14052388 0.0047739372 0.40292859
0.13815168 0.0046086311 0.3889752
0.143801 0.0046031773 0.38851517
0.38915136 0.0073331594 0.61892992
0.39501014 0.0073683932 0.62190562
0.11094067 0.0019512698 0.16469002
0.26627353 0.0044977963 0.37962139
0.27536127 0.00462313 0.3901996
-0.43228021 0.010376647 0.75234395
-0.39353099 0.010288477 0.745951
-0.38725388 0.010248914 0.74308389
-0.38110629 0.010254458 0.74348456
-0.37896416 0.01041393 0.75504714
-0.35228935 0.010156676 0.73639506
-0.35144719 0.010223746 0.74125808
-0.34956887 0.010215148 0.74063534
-0.34577027 0.010243312 0.74267656
-0.28812128 0.0096420944 0.69908673
-0.27557111 0.0097265095 0.70520765
-0.27185696 0.0098100454 0.71126395
-0.2694968 0.0097795576 0.70905417
-0.23476999 0.0097849816 0.70944589
-0.19388095 0.010186017 0.7385233
-0.1902543 0.010077536 0.73065764
-0.18748888 0.010356069 0.75085324
-0.18588874 0.010446519 0.7574113
-0.18471089 0.010471538 0.75922424
-0.11415279 0.0098444223 0.71375602
-0.10208279 0.010007128 0.72555393
-0.095884532 0.010007635 0.72559005
0.029983401 0.0071205944 0.51626945
0.049428195 0.0070610046 0.51194793
0.051498204 0.0070448071 0.51077336
0.05281654 0.0070751607 0.5129745
0.059238881 0.0071892738 0.52124834
0.084370822 0.0075437278 0.54694784
0.092128664 0.0072349161 0.52455783
0.099443406 0.0071165189 0.51597273
0.10349223 0.0057986081 0.42042065
0.11230919 0.0059810281 0.43364668
0.12735793 0.0057806373 0.41911691
0.12697539 0.0057230145 0.41493958
0.12870994 0.0057609528 0.41769058
0.13881382 0.0043030307 0.31198543
0.13685516 0.0042220429 0.30611277
0.25684133 0.0050970167 0.36955225
-0.42691141 0.011868998 0.75422245
-0.40880296 0.011858106 0.75352937
-0.35841653 0.011532411 0.73283225
-0.35213053 0.011635229 0.73936635
-0.34961572 0.01176329 0.74750453
-0.31380573 0.011391312 0.72386724
-0.28511053 0.010830224 0.68821263
-0.27225348 0.011146992 0.7083407
-0.20847563 0.011384577 0.72343832
-0.20381808 0.011832282 0.75188917
-0.19302109 0.011860117 0.75365561
-0.16765982 0.011664629 0.74123389
-0.10395172 0.011284068 0.71705192
-0.084367633 0.011329636 0.71994931
0.021964312 0.0080167502 0.50942844
0.04995358 0.0081420392 0.51738983
0.057768732 0.0081525296 0.51805586
0.062248498 0.0084603876 0.53761947
0.086684376 0.0084902793 0.53951889
0.10212997 0.008070603 0.51284993
0.10670027 0.0067047104 0.42605406
0.11383691 0.0069745928 0.44320309
0.11390695 0.0068089068 0.43267459
0.11905757 0.0067340732 0.42792004
0.12436768 0.0068247169 0.43367958
0.12439695 0.0066770315 0.42429465
0.12842295 0.0066042393 0.41967005
0.13948944 0.0068389848 0.43458599
0.14047769 0.0064173639 0.40779448
0.14065161 0.0062697008 0.39841151
0.38910815 0.0097388625 0.61886102
0.29555944 0.0060926527 0.38716108
-0.43177786 0.013286784 0.75146979
-0.42607436 0.013359785 0.75559694
-0.41510525 0.013422862 0.75916439
-0.4147743 0.013464794 0.76153582
-0.37871549 0.013284713 0.75135201
-0.36870378 0.013100177 0.74091452
-0.36059269 0.012867227 0.72774059
-0.35877842 0.01314266 0.74331743
-0.33820343 0.013270438 0.75054294
-0.29971561 0.012345821 0.69825011
-0.29044589 0.012396052 0.70109147
-0.28167281 0.012472048 0.70538932
-0.27794915 0.012373388 0.69981009
-0.27700871 0.012398243 0.70121568
-0.2704024 0.012508646 0.70745856
-0.25537589 0.012439564 0.70355278
-0.25292742 0.012541875 0.70933765
-0.24804445 0.012373894 0.69983846
-0.25160936 0.012862012 0.72744375
-0.21875572 0.012850076 0.72676939
-0.2092846 0.012653127 0.71563011
-0.20836852 0.013175502 0.74517411
-0.20072876 0.013196751 0.74637777
-0.18959093 0.013424754 0.75927168
-0.1588009 0.013159424 0.74426478
-0.098756522 0.012410596 0.7019127
0.019910097 0.0090634525 0.51260704
0.041429728 0.0092198551 0.52145368
0.050706208 0.0090847164 0.51381058
0.079436332 0.0094999224 0.53729242
0.082941145 0.0095067471 0.53767931
0.085802823 0.0095695704 0.54123247
0.090414315 0.0086796433 0.4909004
0.095668525 0.0089757442 0.50764602
0.093685895 0.0076602995 0.43324804
0.10203746 0.0078032836 0.44133431
0.11582378 0.008247599 0.46646523
0.11696342 0.0082576871 0.46703488
0.11677328 0.0081059039 0.4584505
0.12430891 0.0074424148 0.42092586
0.13785383 0.0076963603 0.43528742
0.13532928 0.0074054748 0.41883594
0.15057942 0.0069522858 0.39320505
-0.42671162 0.014851078 0.75672692
-0.39559972 0.01465717 0.74684638
-0.39442322 0.014732465 0.75068325
-0.392041 0.014703304 0.74919719
-0.38591307 0.014592692 0.74356085
-0.38519153 0.014625654 0.74523956
-0.37150598 0.01440382 0.73393649
-0.35927337 0.014479816 0.73780864
-0.34602731 0.014258876 0.72655147
-0.28584665 0.013754219 0.70083672
-0.26885375 0.013284653 0.67690992
-0.27459556 0.01379101 0.70271081
-0.25312808 0.014362559 0.73183447
-0.23347263 0.014119819 0.71946615
-0.22402734 0.014009953 0.71386856
-0.20723113 0.014325544 0.72994775
-0.20627138 0.014477134 0.73767394
-0.18957269 0.014899582 0.75919849
0.022148728 0.010081694 0.51370543
0.024547756 0.010165825 0.51799244
0.026516378 0.010072485 0.51323694
0.03877902 0.010123655 0.51584423
0.078590482 0.010585338 0.53936917
0.094236344 0.010279968 0.52380937
0.090085 0.0083407462 0.42499733
0.10399154 0.0084372461 0.42991418
0.11557546 0.0088308901 0.44997221
0.1167669 0.0085655302 0.43645126
0.13868776 0.0078043342 0.39766377
0.14387771 0.0075417459 0.38428414
0.14928654 0.0076505467 0.38982886
0.14474162 0.006263949 0.31917518
0.389918 0.012212202 0.62226433
-0.41761032 0.016538456 0.76674277
-0.39227989 0.01603882 0.74357921
-0.37307465 0.015965089 0.740161
-0.36289889 0.016004696 0.74199706
-0.29100028 0.014996484 0.69525558
-0.27160722 0.01467137 0.68018228
-0.24887501 0.014702588 0.6816293
-0.24643058 0.014730632 0.68292993
-0.236801 0.01553531 0.72023517
-0.22792892 0.015666142 0.72630125
-0.20979854 0.01570341 0.72802907
-0.20770103 0.016021714 0.74278694
-0.2045126 0.016146019 0.74854928
-0.11196408 0.015515059 0.71929687
-0.096695721 0.015783206 0.73172873
0.026822656 0.011198267 0.51916528
0.034008026 0.011009812 0.51042861
0.081512481 0.011722699 0.54347837
0.092592508 0.009518221 0.44127661
0.11791196 0.0099019855 0.45906872
0.13517454 0.0088482499 0.41021627
0.14395258 0.0082932264 0.38448405
0.14765194 0.0082246512 0.38130432
0.14717904 0.0080647767 0.37389201
0.14606008 0.0070807338 0.32827145
-0.41287482 0.017414764 0.74061042
-0.37401786 0.01730144 0.7357921
-0.3735441 0.017352492 0.73796278
-0.33713531 0.017761067 0.75533813
-0.30619663 0.016690612 0.70981449
-0.27823767 0.016927943 0.71990675
-0.2760632 0.016889036 0.71825248
-0.27489692 0.016911715 0.7192176
-0.26245546 0.016515747 0.70237762
-0.2581639 0.017550752 0.74639374
-0.19059625 0.017795905 0.75681955
-0.16426349 0.017405286 0.74020725
-0.088976562 0.016361639 0.69582361
0.021293193 0.012218446 0.51962239
0.027795285 0.012147829 0.51661879
0.09183374 0.012294993 0.52287853
0.095549673 0.010599628 0.45077831
0.10153714 0.010723203 0.45603377
0.10223481 0.01030238 0.43813759
0.11164811 0.010758266 0.45752484
0.12120572 0.010403529 0.44243884
0.11995986 0.0100611 0.42787635
0.13676658 0.0092780143 0.39457327
0.14582577 0.0090550482 0.38509053
0.14673147 0.0087649822 0.37275487
0.1539385 0.00821428 0.34933442
0.13917348 0.0052404553 0.22286505
0.27003095 0.0089975595 0.38264626
-0.4294447 0.019315243 0.75869805
-0.38183212 0.018964007 0.74490052
-0.37160718 0.019093066 0.74997002
-0.34570467 0.019167781 0.75290495
-0.27894801 0.017976806 0.70612484
-0.25277734 0.017522708 0.68828791
-0.25250053 0.017814577 0.69975179
-0.23884745 0.017156169 0.6738897
-0.23730259 0.018256217 0.71709901
-0.22720166 0.01770784 0.69556028
-0.21140574 0.018269911 0.71763819
-0.20416321 0.018447071 0.72459644
-0.19644317 0.018595904 0.73044258
-0.18668136 0.019534841 0.76732355
-0.093201965 0.017955586 0.70529038
0.020276099 0.013290092 0.52203107
0.029342532 0.013353929 0.52453923
0.080720872 0.013701722 0.53820008
0.081830114 0.013694867 0.53793043
0.096678942 0.011495814 0.45155269
0.10475853 0.011642948 0.45733148
0.12259659 0.011482641 0.45103496
0.11950585 0.011019841 0.43285656
0.12139687 0.010777056 0.42332006
0.12194267 0.010745421 0.42207754
0.13883528 0.010260418 0.40302676
0.14747265 0.0096956193 0.38084131
0.14700213 0.0083311349 0.32724458
0.14203981 0.0080117732 0.3147006
0.13807407 0.0057469904 0.22574031
0.13913545 0.0056722388 0.22280419
0.13913676 0.0056529492 0.2220462
0.29639623 0.0098293871 0.38609511
0.29683247 0.0098165125 0.38558984
-0.37176493 0.020649031 0.75353891
-0.35893762 0.020652309 0.75365919
-0.34208617 0.020704806 0.75557548
-0.33836171 0.020773605 0.75808579
-0.33518222 0.020777389 0.75822383
-0.28819674 0.018490657 0.67477423
-0.29490972 0.019016519 0.6939649
-0.28822601 0.019569814 0.7141555
-0.25330245 0.02044712 0.74617106
-0.22303033 0.01974383 0.72050625
-0.20499356 0.018931434 0.69085914
-0.19031546 0.020534098 0.74934489
-0.18726656 0.021092668 0.76972884
-0.1854485 0.021073043 0.76901215
-0.16701692 0.020233914 0.73839122
-0.11522099 0.019227996 0.7016812
0.085205585 0.014155462 0.5165714
0.090235561 0.014799342 0.54006815
0.1003038 0.012464434 0.45486063
0.14237955 0.010985181 0.4008792
0.1538054 0.0098511279 0.35949439
0.14475504 0.0087885112 0.32071638
0.26223448 0.010339379 0.37731206
0.26557735 0.010407165 0.37978607
-0.41209528 0.022648871 0.77176005
-0.40530482 0.022365168 0.76209337
-0.39566609 0.022099733 0.75304872
-0.31347227 0.021013573 0.71603733
-0.29759258 0.020865902 0.71100587
-0.28952706 0.021165028 0.72119826
-0.2846626 0.021033391 0.71671277
-0.25898421 0.020816326 0.70931667
-0.24860111 0.020099446 0.68488848
-0.25756332 0.021072179 0.71803504
-0.25279856 0.021317467 0.72639292
-0.2530517 0.021470681 0.73161346
-0.2126193 0.021028861 0.71655887
-0.18703687 0.021612212 0.73643595
-0.10862997 0.021990359 0.74932164
-0.097303927 0.02060917 0.70225674
0.083832413 0.015948862 0.54345721
0.12685314 0.013380453 0.45593917
0.12761787 0.01241225 0.42294729
0.1403015 0.012102738 0.41240048
0.13756171 0.011792287 0.40182269
0.14911434 0.011427134 0.38937944
0.14438465 0.010823056 0.36879551
0.15701815 0.01035656 0.35289985
0.14328691 0.007047303 0.24013686
0.14174011 0.0069463477 0.23669666
0.13879493 0.0064345449 0.21925718
-0.43422955 0.023736343 0.75855845
-0.43241012 0.023814723 0.76106328
-0.40344757 0.023454905 0.74956411
-0.33655757 0.023938954 0.76503414
-0.29765552 0.021591529 0.69001484
-0.29071748 0.022421345 0.71653396
-0.2706576 0.02179268 0.69644278
-0.24883002 0.02265124 0.72388095
-0.21531485 0.023554742 0.75275463
-0.19307289 0.021941289 0.7011928
-0.11573315 0.022054151 0.70479971
-0.1146054 0.022127256 0.70713574
-0.093869716 0.023765162 0.75947899
0.090692192 0.015963942 0.5101704
0.13584653 0.0122637 0.39191902
0.15865412 0.013184473 0.42134517
0.15661338 0.011454448 0.36605763
0.15709934 0.011376321 0.36356091
0.17138055 0.01193811 0.38151401
0.13734218 0.0068820044 0.21993256
0.29573783 0.012088269 0.38631308
-0.43215224 0.025279373 0.76060921
-0.4115558 0.024918199 0.74974221
-0.41365001 0.025441244 0.76547951
-0.37883866 0.024563193 0.7390607
-0.3847214 0.025367722 0.76326746
-0.3601369 0.025132075 0.75617737
-0.34584957 0.024576202 0.73945218
-0.28690323 0.023378909 0.70342749
-0.27747151 0.023860723 0.71792454
-0.26826677 0.023327172 0.7018711
-0.24559775 0.023599431 0.71006304
-0.21711069 0.024144486 0.7264629
-0.1823779 0.025135502 0.75627941
-0.11695692 0.023984402 0.72164589
-0.11774227 0.024468124 0.73620015
-0.094341129 0.023349658 0.70254773
-0.092048943 0.024752185 0.74474698
0.083719641 0.017791361 0.5353089
0.086023241 0.016895503 0.50835389
0.14061365 0.012482196 0.37556618
0.14334294 0.012235537 0.36814457
0.14624318 0.012085065 0.36361718
0.14016011 0.0080372691 0.24182636
0.13984826 0.0079899281 0.24040163
0.13727382 0.0074591562 0.22443193
0.13636848 0.0072084516 0.21688861
0.29737148 0.012838632 0.38629007
-0.43055969 0.026861742 0.76355129
-0.42896521 0.026864082 0.76361805
-0.42190567 0.026830301 0.76265782
-0.36944762 0.02525036 0.71774739
-0.35683599 0.026597217 0.75603229
-0.35055229 0.026734158 0.75992495
-0.28370246 0.024470493 0.69557983
-0.28290132 0.025469124 0.72396606
-0.27971569 0.025320843 0.7197507
-0.27584827 0.025108829 0.71372443
-0.26724622 0.025017604 0.71113116
-0.2409448 0.024969652 0.70976835
-0.18839291 0.02654238 0.75447375
-0.18611446 0.0266781 0.75833112
-0.10631412 0.02579917 0.73334771
-0.09572652 0.026783824 0.76133639
0.087613016 0.017987221 0.51129121
0.12880638 0.015124992 0.42993176
0.13689122 0.014067203 0.39986414
0.14356783 0.012900814 0.36670917
0.16654518 0.013426274 0.38164514
0.13919225 0.0082361102 0.23411304
0.13735965 0.0079560578 0.22615278
0.13473573 0.0076427162 0.21724582
0.14602938 0.0077243149 0.21956539
0.14904836 0.0078336447 0.22267336
-0.42631739 0.028389886 0.76472372
-0.41465169 0.028486744 0.76733309
-0.38536867 0.027118549 0.73047882
-0.37465727 0.027478039 0.74016196
-0.37055385 0.027292341 0.7351597
-0.38475251 0.028458774 0.76657969
-0.36450973 0.027076781 0.72935385
-0.28760538 0.026316106 0.70886368
-0.27709767 0.026616573 0.71695715
-0.27454105 0.026517645 0.71429223
-0.27279478 0.026496306 0.71371776
-0.20868535 0.026884198 0.7241661
-0.16748515 0.027751371 0.74752492
-0.1664851 0.027851358 0.75021809
-0.16266707 0.027747139 0.7474106
-0.10366204 0.026545942 0.71505421
-0.089448094 0.026410341 0.711402
0.087071568 0.018864051 0.50813144
0.099070698 0.01974012 0.53172976
0.1272473 0.015767753 0.42472786
0.12573352 0.014640182 0.39435482
0.13460472 0.014596745 0.39318508
0.13088456 0.014105275 0.37994647
0.13232306 0.013831228 0.37256438
0.13686183 0.013570637 0.36554527
0.14905611 0.013981611 0.37661541
0.13853922 0.0087131858 0.23470223
0.13788024 0.0085175186 0.22943205
0.13576224 0.0082401633 0.22196066
0.13524643 0.0081518739 0.21958268
0.13473669 0.0080930591 0.2179985
0.1461542 0.008158192 0.21975303
0.13675597 0.0074190199 0.19984215
0.13733646 0.0074273124 0.20006555
-0.43235242 0.029507741 0.75527912
-0.40850934 0.029889256 0.76504427
-0.38771048 0.028596401 0.73195249
-0.38034272 0.028868377 0.73891383
-0.34749055 0.028633922 0.73291284
-0.34605974 0.028645158 0.73320037
-0.34601524 0.029579103 0.75710565
-0.27102119 0.027702719 0.70907766
-0.23751453 0.027683511 0.70858616
-0.23559436 0.027635932 0.70736831
-0.21056311 0.026947811 0.6897552
-0.19806473 0.027052969 0.69244689
-0.19193241 0.029035941 0.74320263
-0.18363488 0.029750407 0.76149088
-0.18359685 0.030010283 0.76814157
-0.11515713 0.02890338 0.73980981
-0.11635676 0.030029178 0.76862508
-0.10397491 0.02843979 0.72794384
0.086613983 0.020784691 0.53200412
0.10723993 0.014609888 0.37395382
0.12400821 0.015195504 0.38894361
0.13351348 0.013620958 0.3486411
0.14571014 0.013787895 0.35291445
0.15093401 0.013992473 0.3581506
0.13796076 0.0090982765 0.23287892
0.13426319 0.0084577352 0.21648389
-0.420338 0.031283543 0.76277095
-0.36411554 0.031076789 0.75773007
-0.35700044 0.030881599 0.75297076
-0.33883277 0.030986279 0.75552303
-0.33318281 0.030615523 0.74648279
-0.28786984 0.028498843 0.69487315
-0.28378519 0.029784784 0.72622782
-0.24002773 0.029182687 0.71154696
-0.20551702 0.028406575 0.69262296
-0.19682583 0.029546395 0.7204147
-0.18440697 0.029530257 0.72002167
-0.12830549 0.030087963 0.73361927
-0.11648053 0.030690521 0.74831158
-0.10635045 0.030537307 0.74457544
0.086262792 0.021730617 0.52984673
0.099982053 0.022008449 0.53662109
0.12164047 0.015542984 0.37897682
0.1297051 0.015160143 0.3696422
0.13171366 0.014852121 0.36213148
0.14223292 0.014981806 0.36529368
0.14482978 0.015172064 0.36993247
0.15024641 0.015485883 0.37758386
0.13469836 0.0090004951 0.21945435
0.13508359 0.0089638084 0.21856004
0.13443813 0.0088902414 0.21676588
-0.42825019 0.032999411 0.76819056
-0.42323935 0.03273882 0.76212424
-0.36829329 0.032923549 0.76642412
-0.28994274 0.030064851 0.69987708
-0.28008324 0.030959189 0.72069627
-0.27798808 0.030897543 0.71926099
-0.25745904 0.030649737 0.71349293
-0.25545946 0.031339899 0.72955841
-0.19884312 0.029422835 0.68493211
-0.20735763 0.032349944 0.75307137
-0.19542044 0.033333838 0.77597564
-0.16394389 0.031432748 0.73172003
-0.16364813 0.0316782 0.73743421
-0.13103327 0.031416416 0.73134023
-0.13087174 0.03175655 0.73925787
-0.11841819 0.031387314 0.73066217
-0.10248113 0.029925659 0.69663662
0.10534278 0.016390681 0.38155717
0.12050262 0.017655969 0.41101187
0.12569097 0.017522022 0.40789324
0.13054767 0.015239403 0.35475636
0.12121323 0.01159142 0.26983541
0.13403335 0.0094464272 0.21990246
0.29501644 0.01655452 0.38537079
-0.37055847 0.032191262 0.71692854
-0.36975816 0.032389611 0.72134596
-0.36303395 0.032897979 0.73266774
-0.3784315 0.034441859 0.76705152
-0.3624275 0.033273607 0.74103338
-0.36057058 0.033692077 0.75035328
-0.35481882 0.033302739 0.74168235
-0.35466701 0.033588618 0.74804908
-0.33250415 0.031921402 0.71091872
-0.32497326 0.033330843 0.74230796
-0.32771093 0.033943072 0.75594276
-0.26927611 0.032543644 0.72477633
-0.26732969 0.03268446 0.72791272
-0.26316771 0.032363981 0.72077507
-0.24813494 0.031626076 0.70434123
-0.21449335 0.030482143 0.6788649
-0.22104044 0.032973975 0.73436004
-0.21654458 0.034248874 0.76275307
-0.2094741 0.034159258 0.76075786
-0.18367544 0.032201901 0.71716541
-0.13117492 0.033270776 0.74097055
-0.1260474 0.034467027 0.7676118
0.097481281 0.023765072 0.52927023
0.096044749 0.016931087 0.37707049
0.10459056 0.016624108 0.37023407
0.11984935 0.016878501 0.37589949
0.12695482 0.017187849 0.38278884
0.12564138 0.016582564 0.36930877
0.12917104 0.015670151 0.34898859
0.13718131 0.015907049 0.35426438
0.13725379 0.010712251 0.23857141
0.13357988 0.0098405778 0.21915841
-0.42975935 0.035975516 0.76795322
-0.42212468 0.035746023 0.76305383
-0.35999879 0.032900274 0.70230681
-0.3526437 0.034843206 0.74378186
-0.3354699 0.034067795 0.72722965
-0.32820898 0.03494978 0.74605674
-0.24184778 0.033374414 0.71242827
-0.24065465 0.034289226 0.7319563
-0.21199122 0.033229381 0.70933264
-0.21054092 0.033239767 0.70955426
-0.18560389 0.033949047 0.72469479
-0.16189179 0.034175068 0.72951967
-0.13093719 0.035072044 0.7486667
-0.12445119 0.035972387 0.76788598
0.08066836 0.02519612 0.53784972
0.093337744 0.024304375 0.5188145
0.093771249 0.017691463 0.37765163
0.10475227 0.01724036 0.36802202
0.12166628 0.019440204 0.41498095
0.12877706 0.019714072 0.42082727
0.12587664 0.018874571 0.40290672
0.12456647 0.01737088 0.37080818
0.12520531 0.017240584 0.36802685
0.12744251 0.016223624 0.34631813
0.1241791 0.012827948 0.27383208
0.13313279 0.01026836 0.21919352
0.13141635 0.009791404 0.20901245
0.29725757 0.018039122 0.38507301
-0.39173943 0.036376849 0.74557525
-0.4010928 0.037861466 0.77600414
-0.38406366 0.036863744 0.75555474
-0.35982072 0.035584182 0.72932893
-0.36051035 0.036281079 0.74361259
-0.34169769 0.035973787 0.73731405
-0.3462483 0.036964282 0.75761551
-0.33362079 0.036468983 0.74746376
-0.32563773 0.036830947 0.75488251
-0.27142867 0.034264907 0.70228916
-0.2318024 0.035554379 0.72871798
-0.19452497 0.035573244 0.72910458
-0.15992662 0.03585203 0.73481911
-0.16002104 0.036591887 0.74998301
-0.13100943 0.036547825 0.74907964
-0.123853 0.038295403 0.78489774
0.082817584 0.026562482 0.54442149
0.090038687 0.019178048 0.39307088
0.104323 0.018874437 0.38684797
0.10526201 0.018747151 0.38423926
0.12042275 0.017379448 0.35620701
0.12055656 0.016462073 0.33740455
0.12554517 0.013507321 0.27684432
0.13544199 0.011748195 0.24078953
0.13516334 0.011679664 0.23938459
0.13371971 0.01121527 0.22986662
0.12867025 0.009984687 0.20464486
0.1284565 0.009801507 0.20089042
0.29327682 0.01869148 0.3830983
-0.43530771 0.038580745 0.76044184
-0.41869205 0.038697496 0.76274246
-0.38766509 0.036541224 0.72024184
-0.37865484 0.036862984 0.72658378
-0.38010022 0.037464663 0.73844296
-0.35055882 0.03768228 0.74273258
-0.34085152 0.037487656 0.73889607
-0.33799297 0.037346303 0.73610979
-0.28978053 0.034422591 0.67848259
-0.29658815 0.035587445 0.7014423
-0.28791174 0.035442144 0.69857866
-0.2790077 0.034888864 0.68767303
-0.27274683 0.036613345 0.72166353
-0.24826127 0.037817642 0.74540037
-0.24368277 0.037359923 0.73637897
-0.20725474 0.037318826 0.73556858
-0.20849839 0.038417011 0.75721425
-0.19361529 0.039339066 0.77538842
-0.16436407 0.037577167 0.74066061
-0.16122267 0.037217453 0.73356992
-0.13125229 0.037615076 0.74140757
0.086609572 0.028096229 0.55378777
0.094336838 0.019111082 0.37668699
0.096993059 0.019158661 0.37762475
0.12355784 0.01992844 0.39279735
0.11516991 0.017067924 0.33641559
0.12598678 0.017573804 0.34638619
0.12948743 0.014555261 0.28688973
0.13387755 0.014977813 0.29521853
0.12682346 0.013926089 0.27448845
0.13300762 0.013368323 0.26349473
0.13028952 0.012614429 0.24863511
0.13323072 0.01264137 0.24916649
0.13190314 0.011337161 0.2234599
0.14798644 0.01080285 0.21292806
0.15835682 0.0113848 0.22439879
-0.42506862 0.039710104 0.75381333
-0.42767817 0.040259078 0.76423448
-0.35251334 0.039167166 0.74350685
-0.32457089 0.03963612 0.75240892
-0.28972372 0.037031993 0.70297498
-0.28558147 0.036692828 0.6965366
-0.27352098 0.038124382 0.72371155
-0.25716615 0.038222507 0.72557455
-0.24107942 0.038626775 0.73324829
-0.23683655 0.038701713 0.73467118
-0.21265523 0.03775394 0.71667987
-0.20784348 0.037994429 0.72124475
-0.19391277 0.039885238 0.7571376
-0.16028431 0.03918083 0.74376637
-0.13131714 0.039075866 0.74177366
-0.13011777 0.039677083 0.75318617
-0.11538729 0.03959398 0.75160879
0.083097786 0.028776601 0.54626334
0.092948526 0.026584968 0.50465989
0.088865966 0.020629346 0.39160496
0.12050816 0.019390896 0.3680957
0.12045428 0.019256517 0.3655445
0.11542043 0.017119303 0.32497394
0.12954125 0.013238609 0.25130731
0.13132909 0.013095528 0.24859113
0.13328663 0.012975737 0.24631733
0.13312563 0.012858495 0.24409157
0.1248813 0.010607257 0.20135665
0.12615731 0.010534137 0.19996846
-0.4198491 0.041778639 0.76485056
-0.41245064 0.041857302 0.76629084
-0.39796644 0.041373134 0.75742692
-0.3669942 0.040809348 0.74710566
-0.3573392 0.039909378 0.73062962
-0.35237977 0.039702505 0.72684222
-0.26998907 0.039021045 0.71436685
-0.25222778 0.039107993 0.71595865
-0.24114589 0.038802207 0.71036059
-0.22406183 0.040092081 0.73397416
-0.21159463 0.039234757 0.71827954
-0.18950835 0.041813746 0.76549309
-0.11844406 0.043350011 0.7936179
-0.10114497 0.039268017 0.7188881
0.089267641 0.02109015 0.38610208
0.093076617 0.021018535 0.38479072
0.093444854 0.020916864 0.38292944
0.12458387 0.022553518 0.4128921
0.11799207 0.019433022 0.35576463
0.11478952 0.017548501 0.32126415
0.13061914 0.019276604 0.35290092
0.1274114 0.014270782 0.26125813
0.1299614 0.01371488 0.25108123
0.13055637 0.013664827 0.25016481
0.1324192 0.01321055 0.24184841
0.13137677 0.012954846 0.23716706
0.13052884 0.012439266 0.22772843
0.12510028 0.011172056 0.20452911
0.1242657 0.011020511 0.20175469
0.12443039 0.010996953 0.20132333
0.12654701 0.010597646 0.19401318
0.13286731 0.010842696 0.1984995
0.1364471 0.010925516 0.20001554
0.14830735 0.011549488 0.21143907
0.29651675 0.021098375 0.38625222
-0.4325209 0.043389022 0.76702899
-0.41510394 0.043112531 0.76214117
-0.41076788 0.043342516 0.76620716
-0.38213095 0.040482268 0.71564358
-0.38292909 0.04173626 0.73781139
-0.35511345 0.040716693 0.71978766
-0.32568818 0.041475505 0.73320216
-0.31747216 0.041222632 0.72873169
-0.2805914 0.039328009 0.69523865
-0.27772713 0.040648699 0.71858591
-0.26474732 0.039625481 0.70049745
-0.26952946 0.040570676 0.71720654
-0.2519418 0.039969191 0.70657355
-0.25501296 0.040700391 0.71949953
-0.21783763 0.039535388 0.69890493
-0.20996727 0.041216001 0.72861463
-0.205373 0.043197706 0.76364678
-0.20215259 0.04286097 0.75769418
-0.18412608 0.042438716 0.75022942
-0.1645132 0.041935429 0.74133259
-0.15927151 0.042226076 0.74647051
-0.13346508 0.041156054 0.72755486
-0.13370833 0.042214781 0.74627095
-0.12883702 0.043812737 0.77451938
-0.12525687 0.04490307 0.79379445
0.12513962 0.023132801 0.40894049
0.11672476 0.019908622 0.35194355
0.11770889 0.019092172 0.33751047
0.1293743 0.020003542 0.35362148
0.13666311 0.020648018 0.36501449
0.14841512 0.022170454 0.39192843
0.13187709 0.014841437 0.26236612
0.13039657 0.01442939 0.25508195
0.13103715 0.014087945 0.24904609
0.13157585 0.013700634 0.242199
0.13070056 0.013450727 0.23778135
0.12707844 0.012047365 0.2129727
0.12438938 0.011625856 0.2055214
0.12041739 0.010688439 0.18894976
0.12127504 0.01069285 0.1890277
0.12561437 0.010893986 0.19258332
0.13038227 0.011125222 0.19667095
0.13326719 0.011262447 0.19909692
0.13546857 0.011339858 0.20046532
0.14356747 0.011613756 0.20530725
0.29844251 0.021869496 0.38660794
-0.4049271 0.043672472 0.74638528
-0.38143429 0.043906301 0.75038189
-0.37354559 0.043921635 0.75064415
-0.35825282 0.042673364 0.72931057
-0.3396937 0.042303354 0.72298664
-0.32459134 0.040981889 0.70040196
-0.31819326 0.041514307 0.70950156
-0.27698904 0.041703478 0.71273452
-0.27047071 0.041405231 0.70763749
-0.25976238 0.041385934 0.70730764
-0.24538714 0.041511536 0.70945436
-0.2193436 0.04061994 0.69421607
-0.22003964 0.041026324 0.70116168
-0.18883222 0.04350391 0.74350494
-0.12723622 0.044187739 0.75519198
0.085723728 0.030409411 0.51971287
0.088348776 0.028734237 0.49108338
0.089870781 0.02253589 0.38515019
0.09257248 0.022592545 0.38611847
0.12544248 0.023985803 0.40993029
0.12333742 0.023099288 0.39477897
0.11492571 0.020145699 0.34430051
0.1159015 0.018979892 0.32437629
0.13164583 0.020932093 0.3577404
0.14280167 0.022190362 0.3792451
0.13246205 0.01709117 0.29209709
0.11802718 0.015016362 0.25663745
0.11409512 0.014448941 0.24694002
0.12947938 0.014945328 0.25542367
0.12988612 0.014682755 0.25093573
0.13052937 0.014634624 0.25011319
0.13067886 0.014299974 0.244394
0.12812462 0.013481572 0.23040724
0.12789211 0.012959018 0.22147638
0.12578264 0.012468368 0.21309096
0.12116858 0.011276066 0.1927138
0.11953714 0.011049122 0.18883532
0.11917165 0.010978267 0.18762439
0.12614647 0.01127921 0.1927675
0.12925038 0.011444598 0.19559407
-0.43159765 0.045581669 0.75396067
-0.4080098 0.044246972 0.7318837
-0.42430475 0.046549484 0.76996928
-0.40469787 0.044921175 0.74303526
-0.35870653 0.044147238 0.73023409
-0.3286843 0.042877659 0.7092337
-0.32865918 0.045386195 0.75072736
-0.31215644 0.043532312 0.72006255
-0.29051635 0.042395666 0.70126134
-0.24611914 0.043286383 0.71599466
-0.21715988 0.040997207 0.67812973
-0.21086052 0.043911055 0.72632712
-0.19513252 0.043519378 0.71984833
-0.19363007 0.044590607 0.73756772
-0.19026777 0.044541582 0.73675686
-0.12643945 0.045370236 0.75046331
-0.10478839 0.047176912 0.78034729
-0.097002715 0.047447801 0.78482789
0.079727322 0.023946926 0.39610296
0.084682554 0.023443699 0.38777936
0.12410477 0.0241808 0.39997143
0.1216875 0.023387611 0.38685143
0.13642779 0.018273935 0.30226678
0.11428764 0.014885411 0.24621773
0.12884787 0.015563518 0.25743413
0.12882087 0.015298933 0.2530576
0.12938556 0.015112191 0.24996877
0.12727705 0.013679683 0.22627378
0.12718472 0.01341489 0.22189397
0.12124553 0.011737972 0.19415617
0.11985204 0.011524186 0.19061989
0.11812708 0.011205956 0.18535602
0.12240139 0.011419922 0.1888954
0.12688747 0.011684299 0.19326848
0.13629726 0.012232214 0.20233148
0.13809922 0.012238607 0.20243722
0.13827732 0.012216121 0.20206523
0.13870493 0.012140155 0.20080858
0.14485803 0.012409911 0.20527047
0.29827681 0.02335991 0.38639337
-0.42867041 0.04690364 0.75165361
-0.42360905 0.046699867 0.74838811
-0.40338901 0.045501649 0.72918636
-0.37494242 0.045266002 0.72540992
-0.36679614 0.045602575 0.73080355
-0.35109958 0.045190603 0.7242015
-0.3161158 0.043161482 0.69168347
-0.31056091 0.04300639 0.68919832
-0.2592901 0.043801278 0.70193666
-0.24801064 0.045021832 0.72149712
-0.22439666 0.044925213 0.71994871
-0.2018677 0.044706896 0.71644968
-0.1852206 0.047093064 0.7546894
-0.13579592 0.047294781 0.75792223
-0.13022313 0.047037303 0.75379556
-0.12234131 0.049044594 0.78596348
-0.12074426 0.049078271 0.78650314
-0.10487285 0.048733398 0.78097624
-0.094754696 0.048680544 0.78012937
0.084115773 0.034504756 0.55295569
0.12454179 0.025756001 0.41275251
0.11926183 0.020953476 0.33578962
0.12750146 0.021874577 0.35055059
0.13247612 0.022595271 0.36210006
0.12854376 0.015496716 0.24834234
0.12771645 0.014904633 0.23885381
0.12628391 0.014280781 0.22885633
0.12484601 0.013591707 0.21781373
0.11997113 0.012325615 0.19752383
0.11828223 0.011659727 0.18685281
-0.3948482 0.047202587 0.73358721
-0.37850702 0.047120199 0.73230666
-0.3743223 0.046987861 0.73024994
-0.3599312 0.046740517 0.7264058
-0.34494811 0.045782238 0.7115131
-0.33419123 0.045559704 0.7080546
-0.30857947 0.044063464 0.68480122
-0.33126366 0.048217461 0.74935955
-0.3250106 0.048240244 0.7497136
-0.26865578 0.046262115 0.71897084
-0.20774767 0.046045512 0.71560448
-0.19261971 0.04501231 0.69954711
-0.19227627 0.045283526 0.70376247
-0.19604132 0.046534285 0.72320086
0.083790869 0.035442457 0.55081969
0.08635959 0.034585238 0.53749758
0.083554476 0.032594651 0.50656146
0.1205323 0.024824291 0.38580036
0.11969289 0.024155661 0.37540895
0.11470464 0.022111356 0.343638
0.11603507 0.021946251 0.3410719
0.070788473 0.011894062 0.18484858
0.069389492 0.011530295 0.17919505
0.068953186 0.011394903 0.17709094
0.13546661 0.019404173 0.30156511
0.13454965 0.019091159 0.29670054
0.12685588 0.01711233 0.26594681
0.12700525 0.016258255 0.25267357
0.12698671 0.015529513 0.24134791
0.12687126 0.015452608 0.24015278
0.12701097 0.015345469 0.23848772
0.12691334 0.015151247 0.23546928
0.12597206 0.014920548 0.23188382
0.12573233 0.014604852 0.22697747
0.12187901 0.013580844 0.21106333
0.12172839 0.013514042 0.21002501
0.12228379 0.013378367 0.20791638
0.12229666 0.013331324 0.20718533
0.11854562 0.012514606 0.1944924
0.11934415 0.012381807 0.19242859
0.11966005 0.012371942 0.19227535
0.11916098 0.011950955 0.18573254
0.14519039 0.01323843 0.20574141
0.29588315 0.024800271 0.38542688
0.2980192 0.024840966 0.38605964
-0.43054399 0.049857482 0.75212008
-0.37288508 0.048221871 0.72744602
-0.34296283 0.047522753 0.71689969
-0.28709593 0.046417758 0.70023018
-0.29028025 0.047178552 0.71170729
-0.26782992 0.046976149 0.70865375
-0.25337473 0.046001658 0.69395334
-0.25729826 0.047834009 0.72159547
-0.25114635 0.048735246 0.73519069
-0.22064945 0.045675084 0.68902677
-0.21890222 0.046239242 0.69753748
-0.20491929 0.046791077 0.7058621
-0.20848751 0.048317283 0.72888559
-0.21218288 0.051082224 0.77059561
-0.18612358 0.05071336 0.76503104
-0.15880236 0.049836472 0.75180274
-0.098441154 0.051032096 0.7698397
0.084650725 0.035879895 0.54126227
0.11956754 0.025369748 0.38271254
0.11923626 0.02512753 0.37905872
0.11413869 0.02311109 0.34863979
0.11718538 0.023272172 0.35106999
0.11511329 0.022571623 0.34050184
0.1161935 0.022640288 0.34153771
0.12088457 0.023262069 0.3509174
0.13936475 0.024959862 0.37652946
0.14034972 0.024708241 0.37273341
0.069837481 0.012021765 0.18135303
0.067605168 0.011384755 0.17174333
0.12844583 0.01761362 0.26570833
0.12757859 0.017341346 0.26160103
0.12601009 0.016905859 0.2550317
0.12584761 0.016739249 0.25251812
0.1258491 0.016597077 0.25037348
0.12050584 0.012409687 0.18720496
0.13123849 0.013080612 0.1973263
0.13380882 0.013251632 0.19990605
0.14106312 0.013413265 0.20234424
0.14246395 0.013505071 0.20372915
-0.41893429 0.051276147 0.75147969
-0.41061112 0.051040158 0.7480213
-0.3995412 0.050053924 0.73356754
-0.39339119 0.050675496 0.74267691
-0.37251118 0.049586475 0.72671658
-0.35726988 0.049411908 0.72415847
-0.34185126 0.048113227 0.70512539
-0.34216198 0.048370197 0.70889145
-0.33141804 0.048572034 0.71184951
-0.32857424 0.048601493 0.71228105
-0.27192909 0.048544973 0.71145278
-0.24798083 0.046342894 0.67918032
-0.24972981 0.04926528 0.72200936
-0.24428308 0.04910104 0.71960217
-0.22524206 0.04864265 0.71288425
-0.21266045 0.049257651 0.72189754
-0.21564279 0.051828623 0.75957662
-0.20847154 0.051660791 0.75711685
-0.16172341 0.050702617 0.7430746
-0.12423089 0.050312355 0.7373547
-0.11786148 0.053124234 0.77856439
0.089054972 0.034598291 0.50705677
0.11269203 0.024117231 0.35345125
0.13673034 0.021379158 0.3133232
0.13627306 0.021203816 0.31075329
0.12880775 0.018676773 0.27371818
0.12708899 0.017859757 0.26174414
0.12482026 0.017312303 0.25372112
0.12390348 0.017037109 0.24968797
0.12466708 0.01664038 0.24387383
0.1247063 0.01657632 0.24293488
0.12429258 0.016118661 0.23622745
0.12175986 0.014998168 0.21980625
0.12069258 0.014475733 0.21214956
0.14117661 0.013817802 0.20250714
0.14630535 0.014189258 0.20795119
-0.41744477 0.051952213 0.7402932
-0.41282451 0.051572695 0.73488516
-0.38625854 0.051590845 0.73514408
-0.33293152 0.053110033 0.75679165
-0.30809408 0.050371528 0.71776944
-0.28714031 0.049148276 0.70033866
-0.28957123 0.050351813 0.71748847
-0.28409293 0.050468326 0.71914858
-0.26120535 0.049338788 0.70305341
-0.2449259 0.047633946 0.67876011
-0.25680202 0.050542414 0.72020429
-0.25175115 0.051079214 0.72785348
-0.20693471 0.052334905 0.74574655
-0.15733483 0.053352013 0.7602399
-0.13559344 0.05375132 0.76592964
-0.10606757 0.052905396 0.75387567
0.082954139 0.036721498 0.52326316
0.091762155 0.036665902 0.52247089
0.1154882 0.025591463 0.36466551
0.072059184 0.013279259 0.18922281
0.1355814 0.021282405 0.30326366
